-18.0266094549 16.9141307959 -9.1007883890
-19.7607565066 14.1634448498 -3.5986067361
-20.4902954141 3.9874819496 10.4734428925
-16.7660837848 1.4278749807 17.7262868706
-9.6445545941 2.2477316214 24.9076803195
-0.4734027775 0.2305144238 28.5074155572
-20.8010055420 9.1690902157 3.1798217736
-10.8331182873 -0.7188052635 15.7695861483
-4.5095628634 -4.2059538392 15.5752469642
-13.3058482193 1.4359376123 6.9381725475
-7.8375785509 -2.3082111667 3.9603788397
-15.8325916161 10.3629695079 -6.4636747717
-10.9759023068 7.9037496870 -9.7958239030
-9.7212646110 1.8068846248 -4.0685018605
-14.9657826954 5.5083516776 -0.6012532092
19.3977914894 -22.6421919074 -11.4509597054
19.5184933578 -18.7519223248 -25.9175202909
19.0492157707 -13.5436212875 -30.7860725869
17.3114581735 -21.3151086898 -4.6894274224
14.3077202627 -20.2094345457 -8.9566479464
12.5331898665 -18.7459736261 -14.7697629420
12.4212957404 -11.4087612348 -26.0573430821
11.8556625620 -15.8179086663 -20.9905414227
14.8287880806 -7.5154107488 -30.6714314047
8.5033061610 -0.8485787065 -26.9316292861
14.0075010821 -18.7566732961 4.5983711526
6.4675889507 -7.1329620069 -22.0408272892
9.5773595168 -17.6400266945 -2.4062479017
5.9865659017 -12.3865704468 -16.4446293103
6.7383400545 -15.6583905022 -9.8789637624
1.1709845313 5.9915128842 -22.0408572203
-6.7844967293 12.4881249851 -17.6906562980
10.7005973503 -13.8620980151 15.0943560500
6.6081618299 -6.5760583924 24.4013775522
-5.5758923330 3.7829119705 -13.3935563440
0.9557613135 -9.2280885222 12.2523246396
-3.0419657086 -7.3942875487 0.6268658962
-4.7046531091 -3.0106431427 -7.5696018831
0.5333149104 -1.7909612384 -17.4271178223
1.7398785608 -11.9052367255 -4.1628459389
0.6758620130 -7.9874087417 -11.6849023798
5.3085364833 -14.0303367247 5.5284624769
19.3234811713 -22.0777115092 -18.3497356816
-10.4272312239 14.9798905816 -15.7585159316
-11.9940999747 12.0720359473 -12.0731816915
-16.1871447952 17.0013693927 -11.6028668871
-16.5078287359 13.3716612814 -8.2764473999
-19.1790173499 16.0543713844 -6.4056590727
-17.9580762382 11.8613236647 -4.9903983809
-20.2143493615 11.7302272354 -0.4344331803
-21.0601027548 6.5528952118 6.9192459651
-16.6042067166 2.6685217961 8.5780937717
-19.0474904101 2.0915263886 14.0118760253
-13.8797994805 0.3709512383 16.1613155604
-13.6623049255 1.6906730584 21.4552479847
-9.8158596394 -0.0303402007 20.4272597220
-5.0840876634 2.0694593434 27.5219147042
-2.4955770970 -2.9392270359 22.1439465468
3.5875698187 -2.8578508156 27.5081244974
-17.7871999168 7.2160592066 1.1777413086
-12.1534020060 -0.0944003736 11.1717291294
-7.6718444028 -2.1660731831 15.8130855643
-6.3468338831 -3.8357456182 9.3320710211
-1.5703148008 -6.6449519375 14.5189784293
-14.2395176387 3.4281381554 3.0339278218
-10.4486870402 -0.1054703348 5.4450245020
-8.9545838584 -0.2602845725 -0.4847617877
-5.3910885492 -4.8637958912 2.3886448769
-13.4504821582 9.1895745190 -8.0444355806
-15.4778603829 7.7685399986 -3.8273725958
-8.3716797569 6.1774531581 -11.6112772039
-10.3205112846 4.3642307394 -7.0837970916
-12.2963287744 3.7946203251 -2.3006611184
-7.2051895928 -0.4770068967 -5.8426900682
18.6639906643 -22.1272499565 -8.2644512989
16.8201070594 -21.3745541709 -10.7712080974
19.5940217848 -22.7026745846 -14.7070106562
19.1466758472 -20.7467961401 -22.1909685469
15.5009408792 -17.2308497028 -23.3413786693
19.7402694932 -16.2838913930 -28.9580544611
15.6669112204 -12.8118268844 -28.0859741004
17.4169262127 -10.6264496578 -31.3714937209
15.6685993356 -20.2187927549 -0.4175993993
15.5082101523 -20.6358217049 -6.4875453810
11.8693214344 -19.0100839015 -6.1026089384
13.3906142718 -19.6856464853 -11.8098895555
15.8679998872 -20.2670186289 -16.7169173591
9.4553519694 -17.2900631121 -12.4858325791
11.9493693532 -17.4321830566 -17.8361544708
12.0713494270 -13.8169915471 -23.8391701111
9.3304127776 -9.4712253203 -24.1863075665
13.1988141600 -9.1331177171 -28.1296691637
8.6778752160 -14.2781230223 -18.7391266297
11.7298362762 -4.2208716992 -29.0908722530
7.2675132810 -3.9345599098 -24.4706276330
5.0305095253 2.5655840370 -24.4887598023
12.3608705581 -16.7014741190 9.9218131507
11.7575239547 -18.2585286411 1.3711544641
6.0644672785 -10.0704952429 -19.4299434592
3.6072351892 -4.5298252438 -19.7262608834
7.4071084417 -16.0040672031 1.6352789584
7.8034029209 -16.8034543313 -6.3053748342
6.2064954948 -14.1935435071 -13.2147112743
3.4295422599 -10.2460785932 -14.0841330195
4.2235167247 -13.8534545373 -7.0551242521
0.7499129108 2.1557344817 -19.7735415803
-2.8560689514 9.3461129417 -19.7425816165
-6.0932334706 8.2059395367 -15.7224827066
8.8560719898 -10.4011924171 19.9832461075
8.0140824481 -14.1645048435 10.6513576848
3.7506871681 -8.4001753982 18.6170882538
-2.5934833688 1.0134075815 -15.2846489914
-5.1516085475 -0.1463592790 -10.6835279809
-1.4181384774 -8.8979619042 6.0097944212
3.1932247730 -11.7495338142 9.1163157572
-4.0635545685 -5.2694479172 -3.8653373543
-0.6926640269 -9.7660262406 -1.5121963489
-2.1041681342 -5.5817700658 -9.4544026062
0.5138875519 -5.3307126101 -14.7955018024
3.0693770831 -13.3067099322 0.3672083563
1.0555577819 -10.0646840904 -8.1279627414
-16.0342650473 19.0048808827 -13.3783201210
-12.9195648278 18.0222324173 -15.5474331867
-11.3212016515 13.6358859787 -13.9518859457
-14.0401228170 14.6463015101 -11.9920490831
-19.5560781234 18.3585635839 -7.7337669178
-18.2407078423 19.1029811343 -10.7760296134
-16.2717297126 15.0472958823 -9.8849004004
-17.9116010777 15.0108955407 -7.6893198183
-20.9039034737 14.2440867895 -1.2008968520
-20.3100476067 16.6733513596 -4.5209627550
-18.7353436531 13.9333437830 -5.4866400027
-19.0086065199 11.8008630176 -2.9198196425
-21.8925472855 3.5095387246 13.2309916174
-22.9667878917 6.0301647646 9.7390106078
-18.8931974599 4.4604289394 7.7127565889
-17.9261394598 2.3222693577 11.2835316103
-16.4610092096 2.1182155185 20.7766824878
-19.7008126740 2.1230839533 16.8573505693
-16.3340702378 1.1004469285 14.9645917031
-14.2413594492 0.9001140440 18.5939788798
-7.1813370916 4.1786884829 29.0004423495
-12.1939320580 3.1493623013 25.0387604511
-11.4165503140 1.0128735752 21.5290653657
-7.6943272758 0.7270849166 23.7345749499
2.8523855386 0.6633698300 31.3415872699
-1.9659408887 3.4760935445 31.3256708852
-3.5466192207 -0.4993433156 25.1501991906
0.4806135262 -2.8316505266 25.1416020203
-21.8105483706 11.5625314012 2.3693020580
-19.2091243090 9.3944443302 0.3352172890
-19.2672385008 6.9264776940 4.0270343507
-22.8054793543 8.8445608193 6.1139905703
-13.0718475307 0.0430979890 13.7647526143
-9.9397232524 -1.2299888264 13.2082726092
-8.6292265733 -1.1510201817 18.4245573414
-11.7421539128 -0.0810141123 17.8695104814
-5.2194423647 -2.7650366221 18.8836684031
-6.9191744020 -3.0577520505 12.7338860221
-4.0612659851 -5.4254420268 11.8671645388
-1.8656558055 -4.9697241570 18.5632583374
-15.3435571837 3.0680290626 5.8300954736
-12.3660919533 1.6801848229 4.0997544529
-11.2520227917 -0.1075932396 8.3906245078
-14.3597019115 1.1841060233 9.6747779437
-8.4540243299 -1.9908836667 7.1768975608
-9.7079480679 -0.1669350131 2.4432809475
-7.2097068342 -2.5378839804 0.8042441909
-5.8730574201 -4.4526494192 5.8264758886
-15.0092639127 11.3905207920 -8.3237198946
-14.4118595312 8.2816685062 -5.9794047512
-16.8445394735 9.8215810987 -4.4924384836
-17.0540144953 12.2635899096 -6.6945567991
-12.6599726709 10.5022418589 -10.0879101689
-10.1225470072 9.2410785997 -11.9184463643
-9.3427051529 5.1385263381 -9.3863619695
-11.8900675351 6.8225991119 -7.5996840254
-10.6406625846 1.8224979981 -1.4819273324
-11.3136288822 3.9640472231 -4.7402208689
-8.7534639707 1.9351753847 -6.5260948425
-8.1217677957 -0.4003641620 -3.2466959863
-16.5754262691 7.4744473885 -1.4635112025
-13.9256323086 5.7526978130 -3.0725386479
-13.2556849353 3.6591674499 0.2869338150
-16.0741509203 5.2353555623 2.0866641021
21.0002729638 -23.4968085331 -13.2818482061
20.3091659706 -23.0231060380 -9.8227804432
17.9850052624 -21.8891116088 -9.8352697541
18.1248613080 -22.0114460695 -12.6861959448
21.8181885243 -18.2065724967 -28.9858167936
21.3236392087 -20.7444109076 -25.3425748893
17.3129379237 -18.9395082619 -22.8814968460
17.6364777080 -16.9138639774 -26.1822366716
19.8681651418 -12.1851903352 -32.7607141832
21.4587252277 -15.3077135479 -31.5529745073
17.6061060178 -14.5143203327 -28.5827321802
16.9299997454 -11.9947568150 -29.8918561420
19.1097023527 -22.2155845479 -6.0425261630
17.5598336642 -21.1674911465 -1.6385349321
15.5072214505 -20.4643218918 -3.7296953696
17.1052360590 -21.3593694059 -7.0682506446
15.8831539957 -20.9002067179 -8.7707968669
13.7845221496 -19.8845807517 -6.2302615274
12.4470997734 -19.3363827119 -9.1345001592
15.2524116564 -20.6345120652 -11.3650293813
13.8521053992 -18.8571797687 -17.3328747686
14.5557322793 -19.9985393400 -14.2755186834
11.3855470629 -18.5536041456 -12.1581566787
10.6062329902 -17.4157282400 -15.1931053815
14.1508268633 -11.0751492162 -27.8537878049
13.9433776244 -13.3749333460 -26.0779778732
10.5777458243 -11.7902809029 -23.9855897637
11.2372210507 -9.2043148826 -26.2572016540
13.5736312784 -17.3743060178 -20.5456792261
10.2312736385 -15.9478277687 -18.3074066330
10.2617593308 -14.1085879989 -21.3569667449
13.7369774509 -15.5808810663 -23.6437063920
14.2379774790 -4.9541435576 -31.3314495932
17.3473137240 -8.7103554263 -32.6151269039
15.2235091785 -9.5323368711 -29.8639017078
12.4761131311 -6.8811892300 -28.6559025264
7.4539439085 2.4777916603 -26.9524636213
10.9229639589 -1.1870716346 -29.3340650166
9.4093609687 -3.9258741480 -26.8097997136
6.2238405512 -0.7876080258 -24.5083054511
14.3541766529 -17.9748866470 8.8292383438
12.0058985506 -17.6407237291 5.5795699885
13.7553873006 -19.2667569883 0.5966980788
15.9317615199 -19.8199352465 3.3755666704
8.2717950757 -6.8468889174 -24.3638171320
7.5968005762 -9.7924320925 -21.8889749362
4.8619209105 -7.4663438264 -19.6297632893
5.3377179204 -4.1671238716 -22.1054357984
11.6703243322 -18.6788697151 -2.5874828577
9.6261139467 -17.1741343924 1.7382242340
7.4415891755 -16.4759057782 -2.5558989188
9.8350816820 -17.9854373873 -6.1106440618
7.3066029575 -12.3256983969 -19.1187939803
7.3558340014 -14.2982465600 -16.0277469828
4.7994763397 -12.3238920471 -13.6467562914
4.6996838537 -10.2204294477 -16.8255771601
7.7315223301 -15.8500335311 -12.8312124789
8.5056343157 -17.0678691913 -9.5700680356
5.9266740776 -15.4358425629 -6.6307481016
5.1550052575 -14.0306459167 -10.2567216887
3.5514512653 6.0848258672 -24.4212435362
2.7689302366 2.4571736164 -22.0884295134
-0.9206771868 5.7187479689 -19.7783500871
-0.7456033537 9.6196548665 -21.9349376067
-5.0799326523 13.0091468780 -19.6480133940
-4.6250175270 8.8941463785 -17.6973785751
-8.1487507121 11.6926602953 -15.8152082733
-9.1919090792 15.9726980417 -17.5663890239
12.8122589141 -15.2951755341 14.3950260658
11.1830386435 -11.7485526411 19.8111907977
8.4340378068 -12.5707097292 15.2519385786
10.2589228475 -15.4093943089 10.5719400337
9.2353966701 -7.6076892489 24.8817084845
6.6166167445 -3.2857974543 29.0385312247
3.8261883903 -5.9008805502 23.2261988687
6.3701952102 -9.2973576292 19.6228697172
-7.3201852317 7.2560166690 -13.7153972313
-4.2583694218 4.5833305745 -15.5222177748
-3.9605571863 0.3764832850 -13.0145676021
-6.7173066203 2.9762379970 -11.1866695766
1.0634734661 -7.5730906971 16.8660406332
-1.4866077525 -7.9646563092 10.2204789804
0.8197141753 -10.4318547154 7.7217144180
3.4897234502 -10.3340839259 13.8286344341
-3.4728499761 -7.0286362938 4.1792837984
-4.8053425200 -5.0979679157 -0.8518045034
-2.4129999199 -7.6114595377 -2.6718110979
-1.1783532999 -9.4539242440 2.1042111824
-5.6555014350 -2.8854559327 -4.9511894298
-6.2193039452 -0.4154412512 -8.3009012491
-3.6339638921 -2.9963876216 -10.1082105565
-3.1627791167 -5.4635217006 -6.7044002131
2.2389666057 -1.2991593442 -19.7599113378
2.0082207568 -4.9498364969 -17.3077630937
-1.0182519707 -2.3260706662 -15.0507778834
-1.0248137361 1.6465572559 -17.5257790930
2.6236871020 -12.0568719064 -7.5508654331
3.4923920319 -13.6433581079 -3.5224018498
1.1242978881 -11.6629690338 -0.5009147728
0.0650484333 -9.9416398312 -4.9152476766
2.1965147955 -10.1832247237 -11.1834407299
-0.5288913404 -7.9200572573 -8.7805232814
-0.8688624731 -5.5433452717 -12.1644550900
2.0015185760 -7.9404687933 -14.4732796343
5.1908670719 -14.7278385144 1.1209258690
7.6331145662 -15.2710625715 6.0868537152
5.6253706764 -12.9626342774 10.1215364610
3.0081698656 -12.7084024024 4.6142409145
21.0300510925 -22.5178687997 -21.1960075715
21.1393218392 -23.3913072780 -17.0384568976
17.8386052221 -21.5995153515 -15.8654174327
17.3621272481 -20.5326234325 -19.3127369155
-14.5719864824 18.6355187889 -14.4993313873
-12.0870765738 15.8297625140 -14.7861569263
-12.7395143802 14.2374403509 -12.9872616450
-14.9860346798 16.8077144073 -12.7283429884
-18.9891687811 18.8422274130 -9.2930521989
-17.1973443967 17.0418942818 -10.3863087243
-17.1765787435 15.0824631935 -8.7876508107
-18.6848717590 16.6030038901 -7.7683537855
-20.5974305950 15.5209895206 -2.8832649829
-19.5159283614 15.2140739512 -5.0293623787
-18.8904773970 12.9239105296 -4.2930221665
-19.9786557793 12.9838099021 -2.0725529798
-22.5767269125 4.6806051454 11.4849203192
-20.8863355546 5.2305203922 8.7139072489
-18.4858300157 3.3135697999 9.4983259436
-19.8760163925 2.9118097182 12.2290327619
-18.2106149883 1.9695497732 18.7772878075
-18.0087371468 1.6146582377 15.8532162144
-15.3327620020 0.8962257667 16.8200228145
-15.3258314621 1.4778672452 19.6044826100
-9.7469016139 3.7723813862 27.1406562143
-11.7498249042 1.9923273927 23.2460008197
-9.6418030885 0.9438389818 22.6813883253
-7.4026747308 2.3217611107 26.3711804737
0.5339213033 2.2726379699 31.6228967092
-2.7486093377 1.3459001028 28.2455150751
-1.4829474455 -1.5503272351 25.3539404997
1.6643731020 -1.1972189892 28.2731170675
-20.5125307473 10.4578151062 1.3326373627
-19.2741247276 8.1641607447 2.1541158005
-21.0075991003 7.8666026904 5.0582953134
-22.3545930421 10.2118479213 4.2382219977
-11.4907351992 -0.5453001629 13.4410515880
-9.2609442277 -1.3780392952 15.7855190879
-10.2438689926 -0.5658517309 18.1108804314
-12.3763089375 -0.1515970869 15.8530585729
-6.0779995840 -3.1196770713 15.7643080349
-5.4624207241 -4.1971284986 12.3736752007
-2.9969371720 -5.3920072771 15.1814859670
-3.5125792160 -3.8055439548 18.8581065085
-13.7991547465 2.4025155272 4.9506883236
-11.8355274538 0.7327499478 6.1822866850
-12.7578848441 0.5848173215 9.0079070863
-14.8865052688 2.0619117831 7.7306741651
-9.1186799370 -1.1365724011 4.7080067839
-8.4430274295 -1.3078520441 1.6236435699
-6.5976785358 -3.5680617871 3.1909067646
-7.1387419044 -3.1784736592 6.5286793341
-14.6620916866 9.7655768386 -7.2357376002
-15.6506007718 9.0190819982 -5.2330153413
-16.9350013697 11.0346262375 -5.7145562247
-16.0890645288 11.8061779462 -7.4899443883
-11.4196305214 9.9401809035 -11.0011924347
-9.6945940230 7.1153122860 -10.7041428268
-10.6229168900 6.0244907156 -8.4818361593
-12.2248413477 8.5820502222 -8.9035689682
-10.9994687985 2.8389403879 -3.1777607499
-10.0287383342 2.9847213563 -5.6265373240
-8.4578511974 0.7007816951 -4.9608877449
-9.3719759915 0.7515834396 -2.3684134388
-15.2492181022 6.6053423074 -2.2762979926
-13.6159158602 4.6715399003 -1.4495080261
-14.6288348016 4.4563396805 1.1759926658
-16.3536744914 6.3436425436 0.2668341380
20.7209981737 -23.3170217727 -11.5537895563
19.1060854828 -22.4294912798 -9.8782131004
18.0990534733 -21.9939151630 -11.2213584146
19.5623124528 -22.7450889898 -13.0444882976
21.6117308998 -19.5458291208 -27.2629050315
19.2956653720 -19.8219841047 -24.1015975667
17.4734083567 -17.9770517236 -24.6049102126
19.7038091970 -17.5635712449 -27.5619456604
20.7985336099 -13.7824509799 -32.3263868442
19.5165841246 -14.9398504676 -30.0290642020
17.3397981864 -13.2414681158 -29.3580906635
18.3548093884 -12.1074223365 -31.2401743584
18.3615591928 -21.7252909630 -3.9176439041
16.5060256417 -20.8056175321 -2.6500001928
16.3449288757 -20.9449541342 -5.5234496469
18.0482769123 -21.7557198507 -6.5478870453
14.8476176739 -20.4087309612 -7.6494813918
13.0743771252 -19.6231318118 -7.6497545317
13.8333655820 -19.9837830094 -10.3562461636
15.5563623865 -20.7865024522 -10.0066958039
14.1776692639 -19.4807526318 -15.7853524211
12.9453444986 -19.2688315127 -13.2792776384
10.9528704133 -18.0274501130 -13.6700186608
12.1893531108 -18.1295584459 -16.2869166996
14.0272712362 -12.1905625602 -27.0132209754
12.2178414284 -12.6362396190 -25.0063017196
10.8496945290 -10.4975802301 -25.1357921155
12.7231134425 -10.2126918036 -27.0667080806
11.8483527385 -16.6663093951 -19.4230718961
10.2032264878 -15.0813288815 -19.8625799848
11.9402389247 -14.8728245573 -22.4815995176
13.6248894093 -16.5227544453 -22.1433863651
15.8422836291 -6.8505158252 -32.0890219649
16.2190955024 -9.0958951838 -31.1601534053
13.9241798434 -8.2551512329 -29.3414396123
13.3134545675 -5.8846566933 -29.9706071869
9.2251741573 0.6553597786 -28.1766257175
10.1348225703 -2.5412899274 -28.0654141067
7.8407611494 -2.3748355297 -25.6949378825
6.8102179453 0.8546054645 -25.7269444235
13.1826543941 -17.8188368374 7.2537100758
12.8802275199 -18.5183137493 3.0464157353
14.8359601080 -19.5462374333 2.0198981285
15.1375872665 -18.9806715359 6.0679237787
7.8812401849 -8.3438834446 -23.1466915424
6.2213128508 -8.6617923633 -20.7734918950
5.0544830377 -5.8558148405 -20.8927176687
6.8129932834 -5.5389070664 -23.2629179839
10.6405401201 -17.9700519928 -0.4688277238
8.4796960398 -16.8608285843 -0.3943264342
8.6156529412 -17.2554577653 -4.3741600643
10.7053729422 -18.3527232356 -4.3319390365
7.2895047100 -13.3732914059 -17.5999637149
6.0605308787 -13.3417387236 -14.8487796933
4.7171270960 -11.3375979340 -15.2728312002
5.9869871535 -11.3041100561 -17.9793641000
8.0588706880 -16.4985590563 -11.2171322747
7.1882056531 -16.2709971274 -8.1329892920
5.4682838278 -14.7748835696 -8.4866003281
6.4217060945 -14.9658156337 -11.5655256425
3.1391417310 4.2817206087 -23.2544843590
0.9396331034 4.0922787539 -20.9122443122
-0.8390604249 7.6834785673 -20.8646440492
1.4299166817 7.8658342308 -23.1628186212
-4.8451215396 10.9679613304 -18.6914121755
-6.4201919728 10.3703804529 -16.7427363325
-8.6524551690 13.8457319420 -16.7198537221
-7.1738343620 14.5746673611 -18.5904497662
12.0230085827 -13.6131873430 17.1340643518
9.8135023217 -12.1954795160 17.5791576409
9.3661807625 -14.0551525409 12.9506603266
11.5416260042 -15.3733307299 12.5386392110
8.0395446040 -5.4347649122 27.1330869150
5.2190853491 -4.6719071657 26.1780129679
5.1782059443 -7.5863518264 21.5778646585
7.8040654573 -8.5069358981 22.2968944729
-5.8162937510 5.9791368601 -14.6059476516
-4.1070289253 2.4212714449 -14.3141459048
-5.3588060764 1.7101139567 -12.0859311814
-6.9981513468 5.0508000136 -12.5002115113
-0.2601775345 -7.9318740944 13.5232083245
-0.3093901599 -9.2146573821 9.0622847794
2.0994847111 -10.5088688070 10.7640156217
2.3261065903 -8.9519990647 15.4728356939
-4.2101729509 -6.1430737042 1.5422881695
-3.6138488745 -6.3690734794 -1.7251807871
-1.8737690462 -8.6058052161 -0.3829432154
-2.3195786013 -8.2642026408 3.2015271151
-5.9594800959 -1.7241477455 -6.7019656868
-4.9411366669 -1.6936448511 -9.1870324420
-3.4248914511 -4.3065109675 -8.4767619334
-4.4196862839 -4.1762718061 -5.8046387923
2.0908065159 -3.1723550425 -18.5655038891
0.5004406671 -3.6495819027 -16.1614556349
-1.0374578719 -0.3931932303 -16.3279345038
0.6154199874 0.1693933084 -18.6215164002
2.9784974359 -12.8994155510 -5.5998801662
2.3000328825 -12.6791765770 -1.9802863849
0.5139697916 -10.8632938381 -2.7862765309
1.3409545304 -11.0215112720 -6.2042292421
0.8356624965 -9.0713694314 -9.9578435608
-0.7267413713 -6.8064214381 -10.5337336958
0.5704297722 -6.7585841297 -13.3004208594
2.0718159844 -9.1316448532 -12.8782981259
6.3539385752 -15.0585574932 3.6136830787
6.6380636578 -14.1621644807 8.1441883592
4.2588793343 -12.9253282101 7.3668344123
4.0955355409 -13.7511248316 2.9030718029
21.0750299784 -23.0588350263 -19.0928567520
19.4874705149 -22.4795092186 -16.4866766529
17.5854261990 -21.1398495978 -17.5647752963
19.1829225678 -21.4994257477 -20.2624280545
-11.1138769505 17.1422427049 -16.5579725968
-9.7895614053 12.8010790242 -14.8924427669
-10.6552647133 11.4398824477 -13.0081605492
-13.2477258119 12.5385088701 -11.1263016395
-15.2189572705 14.9027571281 -10.9600693955
-17.2694572587 19.1531263505 -12.1489855997
-15.5227502889 13.1524125289 -9.2159997660
-17.3350662538 13.5688597133 -7.3727409428
-18.4426050948 14.6790308878 -6.5892415804
-19.9826197485 17.6397200480 -6.1318121670
-17.9281192838 12.9201552510 -6.0045037600
-17.9713750315 10.7338886948 -3.7305285383
-19.1085605948 10.6093094644 -1.3745925357
-21.2885601622 12.9041275179 0.5440449697
-23.0479441650 7.4531776144 7.9598894600
-19.1523476567 5.6892420948 5.8983253568
-17.0310584445 3.7346702134 6.7474689949
-16.0762646351 1.7449990904 10.4226822738
-17.2102332531 1.5600345119 13.0961849964
-20.9289750850 2.6220233421 15.0107135381
-14.6855472005 0.5775558086 14.2491564677
-13.0870234426 0.3816015517 17.9479702747
-12.9669557371 0.9822748980 20.1943133382
-14.4545596611 2.5258934156 22.8618296960
-11.3590371288 0.2940668834 19.7746117324
-8.0914693021 -0.4742234525 21.0868941358
-5.6404983056 0.2751627764 24.5902317383
-4.5650394693 4.1520171248 30.4511829775
-4.3676910767 -1.9171502742 22.0320782098
-0.6967865199 -4.1268489354 21.9154588022
2.2736715947 -4.2972119604 24.4523925747
4.9073654243 -1.2300111841 30.4806014972
-17.8976616436 8.3930923800 -0.6033946800
-17.6131740010 6.0430824475 3.0324008131
-13.7569537661 0.4920159978 11.6800890722
-10.6190155418 -0.7816029601 10.7305437547
-8.4166662110 -2.0533522103 12.9958772564
-6.9403854781 -1.8721938818 18.7142103627
-7.7192065009 -2.6559274707 9.8515238638
-5.0297204591 -5.1017469476 8.7165533903
-2.7310021516 -6.6966346279 11.1655246993
-0.3249729552 -6.2335711190 17.9240718607
-15.7373484393 4.1449862244 3.9547140665
-12.8405936978 2.6754101631 2.1366176930
-11.0129142819 0.8430237261 3.2671715384
-9.8236350932 -0.9479129004 7.7908338069
-10.2169836215 0.8440720861 0.3805487505
-7.7156583751 -1.4520179623 -1.3397045808
-5.9999244030 -3.8152016407 -0.0195157818
-4.6526318212 -5.7553833231 5.0499723219
-13.8533427353 10.9710521587 -9.1912846920
-13.1508879316 7.5644295922 -6.7592022865
-14.1894700774 6.9426935919 -4.5825130702
-16.7391880450 8.6322410263 -3.0636419713
-8.7592901676 8.3609738309 -12.8273753801
-8.0430452425 4.1329787766 -10.2943669866
-9.0385278170 3.3865098534 -7.9866057938
-11.6037216328 5.2683914450 -6.2030604804
-11.9334462803 2.7968533822 -0.5945043066
-12.6115442512 4.8833049072 -3.8835375830
-7.4847546225 0.8051803182 -7.4229717732
-6.8847810743 -1.6178821045 -4.1099967647
19.7703020647 -22.6457560972 -8.0114419147
17.6859408329 -21.6824431682 -8.4701834178
16.9194498411 -21.3849856576 -9.5231188813
16.6881164648 -21.3048978312 -12.1465457650
18.0440891801 -21.8953917337 -14.2331331831
21.1415921680 -23.5318154342 -15.0842691506
21.0858474194 -21.7519155160 -23.2963966071
17.2455083198 -19.7937906977 -21.0911068534
15.3980256197 -18.1169495072 -21.6927146381
15.6396661564 -16.2540768275 -24.8688028623
17.7109282373 -15.7571606918 -27.5345319368
21.8112001037 -16.7770748274 -30.4396968392
15.7430667291 -14.0022887295 -27.2527752859
15.5448881508 -11.6997940375 -28.7512397205
16.2625708134 -10.7623284537 -30.0913591555
18.7052789901 -10.4998588649 -32.8567013529
16.7386126612 -20.5348441626 0.7931429645
14.6310071687 -19.9080417893 -1.6890096890
14.5908600640 -20.1538706767 -4.9117584522
16.3577354880 -21.0622615645 -7.7578426019
12.7174894798 -19.3128929413 -4.5354999007
11.1090274871 -18.6757323555 -7.7144958377
11.8886604126 -18.9909427380 -10.6491751043
14.9319352646 -20.3899382056 -12.8024585878
15.5807723239 -19.6432574057 -18.3389143310
16.1941695343 -20.7672160245 -15.1399528307
9.8981933705 -17.8281347881 -10.9194118252
9.1157791666 -16.6707958884 -14.0438205304
10.3605609505 -16.7214589515 -16.7360891269
13.6327054163 -18.1481860184 -18.9193177239
13.8597077479 -14.5358428607 -24.9781302307
10.3915457609 -13.0160461901 -22.7461621411
9.0336973724 -10.8410010206 -22.9638485712
9.7383276031 -8.0742766381 -25.3735064547
11.7694794194 -7.9767358290 -27.4104131431
14.4906473026 -10.1489736756 -28.7529322137
8.7308017720 -15.1735365448 -17.1814360781
8.7131722621 -13.2666682611 -20.2445166226
10.9481564273 -5.4311800860 -27.8108406850
12.5823026883 -3.0550572169 -30.3954411873
8.7778854684 -5.3560149777 -25.5737670014
5.7234266333 -2.4583464302 -23.2999924551
4.5394597698 0.8262432000 -23.2921031222
5.5743877208 4.2857724829 -25.6908835426
13.5797347818 -16.7604492751 11.6186337721
11.1320702062 -16.6117684720 8.1149912999
10.8212329092 -17.4294919922 3.7574930723
12.6976147977 -18.9785911901 -0.9278624783
7.4084517917 -11.1379009110 -20.5574619451
4.7476421691 -8.9405803143 -18.2847193446
3.4727167441 -6.2232794371 -18.4703763082
3.8211655485 -2.7482786556 -20.9262054458
8.6243750752 -16.2785936474 3.9509191503
6.3031013511 -15.6366811419 -0.7072087760
6.5707677707 -16.0054858764 -4.6627467919
9.0911233466 -17.5620788174 -7.8735046390
7.5036710241 -15.1179868581 -14.4292110403
4.9456539592 -13.2109849397 -11.9679307600
3.5266644058 -11.2644417142 -12.4242047423
3.3894625973 -9.0930507389 -15.6570729778
4.7012031379 -14.5605401214 -5.0863201689
3.8994959225 -13.0568453749 -8.9151467861
2.4618394764 0.6004480110 -20.9234624399
-0.9845868439 3.7111970586 -18.6680678685
-2.7847638773 7.3236505756 -18.7017715012
-2.9304076211 11.3371547135 -20.7568839252
-4.4269940579 6.7713654012 -16.6472291915
-7.6987167463 9.5004333034 -14.8234165456
10.2635105797 -9.7353644231 22.4019678257
7.4420367524 -10.9775721465 17.4758138793
7.0396257320 -12.8383718738 12.7819061775
8.9580767574 -15.3823160470 8.4397040209
2.4401908791 -6.8941296310 20.1373964035
4.9324857492 -9.9245445321 16.8149538906
-2.6575842412 3.1214835265 -16.4877345379
-2.5159950444 -0.9828653353 -13.9953443123
-3.8069666228 -1.4598299304 -11.6153736394
-6.4627555401 1.1236810933 -9.7839286963
-2.5721714666 -7.6655268826 7.0687086428
-0.2921653371 -10.0858987058 4.8016376348
1.9192595961 -11.6013731738 6.2288388687
4.5805974278 -11.6830432415 12.0168786481
-5.2800113105 -3.9823886939 -3.0130720048
-2.8310965454 -6.5407333667 -4.7749198041
-1.1908058801 -8.8080071583 -3.7243965175
-0.0351717060 -10.5895738815 0.8742819421
-2.2819279819 -4.2906344104 -11.0916994205
-1.8706582339 -6.7203891962 -7.6849670154
1.9815536875 -6.5623103942 -15.9544891153
-0.9634304095 -4.0701153580 -13.6708415485
4.2136332632 -14.2617758908 -1.2912934158
1.9406870565 -12.2936480984 1.9595680327
-0.2676407899 -8.9448983127 -6.9070423577
2.3791650527 -11.1425141607 -9.4029646592
13.4811486154 -26.1576935528 -7.4526540276
-40.3821849221 -1.7265719321 -21.1577608918
5.0543337637 -23.2804539770 11.3713224888
2.5430623966 -18.3642730245 -36.2281160297
-5.3053880403 -26.6537291314 5.4692494419
-34.6949059000 -14.2113650753 31.7718310562
-4.3894920095 -16.9450230758 35.6663180684
14.7514135650 -26.7732470329 -15.7813038354
-34.9282840866 -6.6046067199 18.1791659895
-20.1455326173 -22.6140930909 28.7010201918
-30.0143357646 -7.8280847510 -25.5262016920
0.6033936444 -20.2425425098 23.5772187559
-12.9263027293 -25.4184231527 17.0058018258
-31.0558959744 -23.2725814282 -4.1407644329
9.7939116570 -24.9669988617 1.1400877950
2.2840619239 -27.1098590330 -3.7167359036
-17.4283216459 -12.3564352680 -29.8366862376
5.5868978846 -26.1705699993 -23.0489803940
-5.5401624570 -26.1968476720 -18.4359131915
-5.5960242856 -15.5773564030 -33.9473324033
-18.4382837321 -25.3971169627 -11.7433400495
-48.5808630427 -13.3005611686 -11.8780871142
-36.8407123143 -17.4851116361 -18.1052456159
-8.4303895589 -21.9941802765 -28.5561031805
3.3384211452 -23.1403810736 -32.1464775129
-22.7235799908 -20.3567130298 -23.5933331020
-30.4728086300 -6.3354313564 32.0112482837
-10.6448480200 -11.7121997178 47.0088749309
0.9455434333 0.1904587292 45.6270881837
-12.6782522993 5.3269154756 35.2657379680
-24.0980063405 -15.5583412652 41.8487025109
-3.5266536976 6.5602743812 40.5805567349
-12.5940217846 -27.1845283220 -2.1769595277
-2.3890833156 -27.4748438726 -10.1794170937
-23.1044080027 -25.8315300026 7.4836421417
6.5191866627 -27.1558892846 -14.9922705624
-32.3088422476 -22.2901545775 18.5108053199
-42.6060673968 -20.1681705479 4.3788363435
-52.2681468632 -8.0836998379 -5.4267041212
-45.1970930146 3.8378659659 -16.4050671300
-25.7991650945 10.4968058307 -23.5265801749
-5.7676905528 -2.0472412475 -30.6370599164
-16.2062587953 4.1101828305 -26.8799980801
3.4511087202 -8.1370831859 -35.0005590016
10.9629502599 -14.9701252757 -37.6338417425
14.3890127963 -21.6078557848 -33.4861637634
15.3449594545 -25.3133532437 -24.8153788556
-32.6007053160 14.3232529640 -19.6529530831
-46.0895574862 -14.4048416808 11.7705079940
7.4151249336 -26.9794909457 -9.0535820133
-22.1355796744 0.3950365365 31.4087708489
2.8339117871 -25.9474113923 3.6170898361
-9.1623829490 -22.5502186949 26.9212901762
-3.2830235191 -24.5665288302 14.7280751724
-24.6998420699 11.7730147259 3.9170571209
-27.5507789902 6.2559181093 9.7929976953
18.1629572759 -25.5302391218 -11.4854175847
-28.1982905241 -22.2073804013 -14.7163264058
8.2681895119 -17.9319085632 18.6139006213
4.3798683697 -12.1959275111 30.4094809752
-14.1901927307 -23.9704285672 -20.9124772123
-1.1823074747 -24.8274661468 -26.0342992420
15.6581755273 -24.0409208159 -2.9118145757
11.9104257727 -21.9108120128 7.0962997486
-32.0861889457 -0.2339324423 13.0735240903
-41.0927860853 -10.6106484718 -20.2024037381
-28.2230425394 -15.1746141348 -25.1492998040
-14.3452548338 -17.9479286169 -29.8227420522
-2.4075345650 -20.0945918934 -33.6339364137
-22.0379106208 20.4828954751 -9.6338519422
-22.0541363306 17.1055441951 -2.8944839976
-15.4195807366 -18.5150188212 39.0362270752
-18.3714095668 -9.4208670346 51.1034819044
-5.9840410669 -2.9085159158 51.9636844413
-0.8138083203 -7.9941629880 41.6759802206
-7.8631177281 8.6310229460 42.2187242788
-8.7617364904 5.7296079482 33.6036481037
-1.4887150589 5.9555348179 47.3161361560
1.0883537495 4.0798448834 39.1302603262
-9.6616371323 -27.0203953662 -10.4861731086
-4.7212651772 -27.4443487220 -2.8636388765
1.2771809137 -27.0342801580 -16.7753456839
-21.3486253196 -25.9419032137 -2.3930120547
-13.9246809856 -26.8050279149 6.9893229378
-22.9480015687 -24.8250053715 18.0626336038
-32.8834629288 -23.5152717844 6.9307274376
-41.5403001322 -19.2365308610 -7.8541336231
-49.3167179421 1.0275158769 -9.7788229984
-48.9798202963 -5.2616144829 -14.4441520911
-14.2511276192 12.3668490907 -22.9715490268
-28.7009597191 1.4683375100 -25.2297109564
-4.4982771222 5.6262568082 -26.8914984321
-17.6797740634 -4.6445413643 -28.8909306297
4.5222229125 -1.2381380380 -31.4383548993
-6.5035239485 -9.5011381913 -32.9892670306
12.3079569347 -8.7936838128 -35.6294811898
2.8264194561 -14.3057013137 -36.7378963867
7.8754367462 -20.0328838073 -36.0909192840
17.9772852511 -16.3987769493 -35.4951933865
9.9948958101 -24.6890361358 -28.9750064905
19.5938901894 -22.2702421685 -29.2041093286
-40.1933008935 11.3106236598 -17.1665885047
-36.8693963722 7.3302806914 -21.3312496452
19.0983027422 -25.3475272813 -20.1291651786
10.8210451122 -26.7318472783 -19.8456807946
-49.9007416476 -15.2996995625 -0.3182214393
-40.3360870015 -18.9513397688 17.0266693630
-50.2099970719 -7.5211907884 1.9962496035
-41.6017160073 -7.0439370919 11.2259127627
-37.4516040982 -11.7240448871 23.7558973434
-29.7756731379 -4.9677076325 41.0762139891
-28.6030866902 18.4867436509 -16.0678593623
-22.5591257916 17.1098358254 -19.1833577322
-29.0776230010 -19.7050615918 30.4273026218
-27.7253325302 -9.1679667086 45.4708426475
3.4345234789 -27.2986080597 -9.8413976339
8.2980222013 -26.5333480478 -4.7633622091
10.5575627279 -27.0313391140 -11.8888136241
-24.5226308331 0.6363997327 39.1321411890
-16.5468635485 5.6589971972 39.2527397332
-28.0887064773 -3.6084188531 24.2854286362
-18.5490694324 2.2969500003 26.4514278530
-1.3847329747 -26.9822159984 0.4823900523
5.8102222293 -26.3022822059 -0.8893499793
7.4392927496 -24.2630566413 5.9836615051
-0.2925730403 -25.3856664258 8.8295711328
-16.7082492579 -24.3646663463 22.7680623829
-6.2006623505 -23.6012169503 20.8927260713
-1.6818325409 -18.6610703508 29.7047674623
-12.2556948977 -21.0092761072 32.9205312323
-9.1389558844 -26.1475445183 11.1183292327
2.8004431730 -21.8609946171 17.3483432050
-26.5345904836 9.0837750371 7.1048534565
-22.8950445933 14.4322178105 0.4981512829
-28.8099668177 3.2533533688 11.8722797589
17.1816857473 -24.8761109223 -7.3659425385
14.3133208675 -26.6386183024 -11.5677206684
18.7391749195 -25.7676611592 -15.6313981451
-34.9375072056 -20.8349090745 -11.3948649700
-29.9023959458 -19.1147898383 -20.9049224610
-21.3146433925 -23.2724278850 -17.8760002319
-24.7677701688 -24.4744920738 -8.0546956663
6.4370584291 -15.1177957570 24.6319237133
10.0460537787 -20.2842096441 12.6675708996
1.9390697476 -9.6245190920 35.9587166413
-7.3216884318 -24.4450642499 -23.6861522084
-11.8976536523 -25.9432507954 -15.2607610772
-15.3871074993 -21.2477392381 -26.1841358295
4.4906088965 -24.9714919336 -27.8326463423
0.2373708326 -26.2608210556 -21.0726052796
-2.3218716270 -22.7454837953 -30.5733115209
13.8153015986 -23.0644870728 1.9127720619
11.9046956595 -25.5886933778 -3.2786092204
-36.4857850111 -3.7627003890 12.9904753603
-29.6203262733 -2.2813246074 17.9675328296
-34.9214969879 -13.1306019509 -22.7145720281
-43.3927991119 -15.4863252789 -15.1432252511
-46.0082008400 -7.9047233431 -17.4663521410
-35.7000823838 -4.8402168027 -23.3912530252
-21.2806420772 -16.7518330235 -27.5257027792
-23.8037526739 -10.3266818740 -27.6732497553
-7.9193753982 -19.0093540092 -31.9050342940
-11.2334706126 -14.0247954628 -31.9819133322
2.6505066486 -20.6513069075 -34.9981855297
-0.8653062139 -17.1838967068 -35.5105720340
-21.8681685663 19.3013305221 -6.2639703536
-23.7267285907 20.3347905487 -12.9304563128
-7.6963193053 -14.8110322172 41.4436921608
-17.7296468536 -14.7153850193 45.1433001615
-22.8077801920 -19.7699444508 35.1251565925
-12.3259328797 -7.2288187669 52.3510519066
-23.5943617632 -9.8588834881 48.6277680069
-3.4913124058 -5.9914551608 47.0367780198
-1.6803684842 2.0345417390 50.1514492748
2.8786613108 -0.6156167535 40.4867963359
-4.1101385332 8.2533235648 44.3900206547
-7.9913688205 6.6536673772 37.8734167888
-12.1443251228 7.5732832555 40.5946337798
-3.6062506173 6.1134235502 36.9334275466
-13.8146482771 4.0878953302 29.8330605218
0.2611252822 4.4605758620 43.3093154890
-3.9724084061 -27.1297775586 -13.9638214815
-7.3750303265 -27.4379341741 -6.4634122316
-15.5389409687 -26.6404628426 -6.5649442981
-0.3949990331 -27.4765709774 -6.8078366029
-9.3170561882 -27.2136896670 1.7964268794
6.1717536656 -26.8726894184 -18.7668657282
2.2061259867 -27.3191944400 -13.0979558231
-17.8621347463 -26.6966995532 2.4813473503
-27.1448367705 -24.9106162859 2.0850947218
-18.4988529728 -26.0714873730 12.4734351251
-26.6891494169 -22.7992232907 23.9650660049
-28.1664996807 -24.4228783379 12.8293494701
-37.6201725050 -21.5886404368 11.9943678606
-37.3707339700 -21.8815611537 0.0550032481
-46.8909626916 -17.4230421991 -4.1000870751
-45.1440763821 6.4301075168 -14.3558103651
-50.0103456571 -2.3843857266 -11.7048685114
-51.3982876610 -3.9590928598 -4.0910706402
-43.6076508564 1.1523395388 -18.7496989024
-51.4753720626 -11.0250152332 -8.3152288488
-9.4540251365 9.0092664546 -24.8404110193
-21.2454923058 7.4534301158 -25.2292900760
-18.6792258837 15.2207013623 -21.1303172508
-23.3847807542 -1.7775985493 -27.0205825214
-33.2989464294 4.6525732032 -23.3738686203
0.2600197411 2.2331188235 -29.1109812452
-10.9356950426 0.9571159292 -28.6629492369
-11.9420272758 -7.1747099017 -30.8820097143
8.4790025229 -4.8926445509 -33.7018808631
-0.9914896778 -5.0336430717 -32.8093325219
-1.5238414085 -11.8189395962 -35.0359984398
15.6175280189 -12.7164739745 -36.4585049412
7.5925252091 -11.4664828071 -36.9039955699
6.1073867670 -17.0077924007 -37.3315021218
13.1301077379 -18.5116893101 -36.3920623269
8.9847879314 -22.7857381465 -33.1792509663
19.2910879335 -19.6415758134 -32.9498324440
15.1057100324 -23.8188769724 -29.4245517527
10.6887818773 -25.9191880193 -24.2788114536
19.3711215016 -24.1929085070 -24.7641922427
-39.1959909051 9.5150184565 -19.2183506144
-34.6214382394 15.3885944930 -17.7999200399
-29.6377875419 12.7570670443 -21.6175773066
15.1515356264 -26.3153479761 -20.2162097753
10.6871441844 -27.1086683276 -15.7336351031
-45.6184666351 -17.9154840897 8.5518457398
-50.7979393135 -12.1978201428 2.2027660352
-40.4243698942 -15.5534445394 21.3058421813
-34.7287720691 -19.1912291603 24.5753634643
-46.5472630082 -8.8160155658 7.5635567296
-40.4532001589 -10.6773770365 16.5432841567
-33.6234865867 -9.9078181966 32.1534501293
-32.9259747937 -7.6969125105 24.5834369933
-30.1180665792 -7.5474951620 42.5276478885
-27.6190982683 -2.1227170863 40.1426094286
-25.8079431476 18.1325308832 -17.3486515562
-29.5592535432 -15.2063809993 37.5617893516
6.9629450923 -27.1130063731 -11.6215418144
5.3284899208 -27.0399177390 -7.0215777807
9.9757810857 -26.7568440952 -8.2754172432
-26.5369143407 -2.8504922559 31.4277741468
-20.7650569372 3.2505597391 38.6342021854
-17.4533038887 3.1721261040 32.8747686714
-23.1440263374 0.0366309964 24.3104337758
-1.1254629954 -26.3546477640 4.5653010807
2.3495414590 -26.6782853570 -0.1650132469
6.4789254752 -25.4678673144 2.5280081306
3.7522472045 -24.8566406090 7.5042093076
-14.6895307922 -22.9658861731 27.9106648363
-11.3444733029 -24.2203585330 22.0202722140
-3.9969509236 -21.5415190480 25.5017514313
-6.7053143424 -20.2001700041 31.5572190801
-7.9782446233 -25.1007975308 16.0379708588
-4.6129054462 -25.8246262342 10.0521967121
1.0759128373 -23.9398143388 13.1550499251
-1.4691862627 -22.7575424765 19.3030521426
-24.0306480741 13.3030605510 1.6136857959
-26.2111587994 10.7399675304 4.7468699878
-25.1584643843 10.1409483377 6.3702440272
-23.4141299047 12.8929758808 2.8216296539
-29.6864777414 5.3489690787 9.3521558845
-26.0536106434 4.4152217824 12.5721095107
-26.0987235292 7.2654352344 9.6472117318
-28.1143729231 8.1071157582 7.3894219673
19.6406805063 -24.4665730063 -9.5626988329
15.8441181544 -25.9077556620 -9.4161835000
16.5190943113 -26.3196919497 -13.5809216752
20.4630662700 -25.0133284992 -13.4906264039
-29.8310379310 -22.8292764129 -9.5559446427
-32.8552097977 -20.0637366069 -16.4773378218
-25.8822033421 -21.3807711338 -19.4473735297
-23.2896954592 -23.9861224132 -13.0663152807
9.9894210704 -13.9631063911 21.8670175802
4.6278905171 -18.9588006164 21.1998958778
6.5924555993 -21.0070247241 15.0915690064
11.6347461428 -17.2271140625 15.9480192364
5.7068353537 -6.4470239619 32.6415648008
0.3319799706 -14.6570166865 33.2263607037
2.6083115576 -16.7727251298 27.3031268999
8.1031226374 -10.2246271957 27.5545227991
-11.4412399099 -23.0021941097 -25.0103807361
-9.7108998589 -25.2656869657 -19.5813418300
-16.5332665109 -24.7952549474 -16.4261493562
-18.6586112039 -22.3326699946 -22.3083078748
1.0529978209 -24.0606790545 -29.3471110366
2.3498357572 -25.6635461777 -24.5598684221
-3.3761492007 -25.5433608944 -22.3429278212
-4.8453774315 -23.5967709460 -27.4006970288
14.6180286186 -25.2468534079 -5.1809939304
18.3505312619 -23.6148008784 -5.3307485856
16.6987782724 -22.5745023312 -0.5602132867
12.8242618314 -24.4864112259 -0.7000317344
13.2566974440 -19.6747963287 10.1373715393
8.6361662460 -22.5770455959 9.3490347750
10.7584926331 -23.6415802992 4.1142145180
14.9524547998 -21.3284459507 4.6227749688
-31.8843501887 2.4749102345 10.6193498952
-35.1497920671 -0.4737927502 10.9782154123
-33.2217850517 -3.3738658474 15.6229400971
-28.3327969298 0.8350911951 14.7578038169
-35.8265491161 -9.2516949034 -23.1576487293
-39.6366265059 -14.3456771147 -19.3351612451
-45.4811505299 -11.9620366911 -16.4939885987
-41.2615765883 -6.3465605105 -20.7785078994
-22.9590183840 -13.8206828967 -27.7301187566
-25.9343774916 -18.0008236269 -24.5408639047
-32.9408583893 -16.3992439345 -21.9851633686
-29.5711036473 -11.7953054970 -25.4529791311
-9.9076980256 -16.7063014394 -32.0987781351
-11.6801838633 -20.1171226324 -29.3530196849
-18.7302897128 -19.1905042804 -27.0183504486
-16.2774188516 -15.3994260891 -29.9756221896
0.3590906320 -19.1571007951 -35.2734405086
0.2070409691 -21.7993149010 -33.0775878296
-5.3739935396 -21.0382726739 -31.3996265340
-4.3254287137 -18.0192838678 -33.9316400611
-23.7496381473 20.4015126753 -11.2922339684
-22.5510284282 19.9601404457 -8.1103648508
-21.1678482295 20.1172706976 -7.7983777496
-21.0322228794 20.8826943834 -11.2143065491
-22.3118799322 18.3381511143 -4.8754204734
-22.6373430900 15.9168498742 -1.6474807529
-22.0836122639 15.6676404873 -0.7605101110
-21.5112540428 18.2606446434 -4.2831533987
-9.8762586044 -18.3186231711 37.5281721216
-13.0484490712 -15.4708397453 43.4069789298
-20.3112735143 -17.5455515865 40.4258390530
-17.8463877388 -20.8653257169 34.0347193475
-15.0172881610 -11.2195879155 49.1197534767
-15.6318873780 -5.7517818147 54.6801711561
-20.7116869984 -6.6961751051 53.1340678771
-21.2437213583 -12.7323204869 46.8253683490
-9.9336895898 -3.0407136325 54.8388841401
-8.0811744469 -7.3027026795 49.8279813027
-2.0300324360 -1.6990402335 48.8982071132
-4.8550143286 1.0361280972 53.4660047191
-5.5383740333 -10.5030207868 44.5575961319
-2.4704631542 -12.6877719895 38.9907972441
2.9459898027 -4.4414337140 38.1417588318
0.4368195731 -3.5977721675 43.9223259624
-6.1363677824 9.8699516402 45.2493213139
-5.7414996693 7.6173592325 41.1971414805
-10.0696552882 7.0807579486 38.9622332802
-9.9518625839 9.5444940669 43.7580732299
-5.8844302731 6.3681710806 37.2791906057
-6.5651611740 6.1223931152 33.4954899390
-11.9823736612 4.6543885791 29.2961785495
-10.7464944864 5.4507184729 34.1415893314
-2.5070900476 5.2010338364 50.8536878390
0.1307885102 3.2817446159 46.7159107336
-1.9043812020 6.4262361514 43.8788703685
-3.3387371087 8.4134445368 47.7280804116
1.9099017467 2.2042225590 42.2882136173
3.2778594313 2.2915444616 37.1781264507
-1.1038470275 5.5410158459 36.2829587774
-1.1594180253 5.4687577108 40.0638226582
-7.7020495821 -26.7000985001 -14.4890103334
-5.8357852791 -27.3540728955 -10.2813041538
-11.3052260164 -27.1711724599 -6.3988602243
-13.8746068259 -26.3932865984 -10.9279099521
-3.7414021456 -27.5324208750 -6.6308818206
-1.1011980813 -27.3393135838 -3.3049107257
-5.2824060277 -27.1682824964 1.1612777902
-8.5498990091 -27.4027316754 -2.4534036156
3.4035046376 -26.6573142006 -19.9325182197
4.0713769336 -27.1359075678 -15.9755534555
-0.6922935687 -27.3069742733 -13.5425327933
-1.9066316800 -26.7578724828 -17.5478260638
-20.0252144314 -25.7540536078 -7.0888512136
-16.8659916812 -26.7334194996 -2.1309251502
-22.4047449873 -25.9804841854 2.4382279450
-26.0555592363 -24.7776536281 -3.0335916519
-13.4980944535 -27.0847768619 2.2668174311
-9.5540698803 -26.8244689455 6.3303250410
-13.7620240756 -26.2694854697 11.9472331902
-18.4432479361 -26.4992493624 7.3692590634
-21.8874957203 -23.8993447946 23.3811786534
-27.7604366533 -23.7564630589 18.3844786948
-23.3310929003 -25.4578874312 12.7388184772
-17.9577706137 -25.3741618829 17.6315257262
-27.9295091168 -24.8165592807 7.3758610504
-32.9641204295 -23.1039102835 12.6574429672
-37.8564716416 -21.9750750708 5.9732875745
-32.1682256255 -23.5379603035 1.3387309787
-45.7906682533 -16.5349898976 -9.9818777317
-39.6794411597 -18.4234509647 -13.3447954051
-36.4126435421 -21.4526239706 -5.8142087393
-42.4976825442 -19.8700536225 -1.8585408698
-46.7822150547 5.2973378996 -11.3749279213
-47.7848707018 2.2168706300 -13.2016727791
-51.2996717613 -3.5735813691 -7.7606096102
-49.9035399109 0.5337160480 -6.4697442347
-47.4178179133 -0.6858731022 -15.4920635821
-45.2358406413 -3.4648609179 -18.1708436660
-49.5065984028 -9.5322213540 -13.2839386350
-51.3592713009 -6.9209189780 -10.0701648592
-8.5846139335 12.9136295872 -22.3102553785
-15.2693801459 8.3651280827 -25.1849565034
-20.0039763930 11.5915282488 -23.4786963859
-13.1172504221 16.0295072062 -20.3049260902
-22.4333451279 2.8934088207 -26.3376700400
-29.6659062877 -3.3110013292 -25.4748897308
-34.7711027119 -0.0870499714 -23.5055628192
-27.3428869693 6.1822656750 -24.6474504656
0.9690039288 5.9402599156 -26.8326827256
-5.1581016289 1.7923927928 -28.9445542255
-10.2258546154 5.0201456790 -26.9718741437
-3.7935120929 9.4647280597 -24.4783435839
-11.5716988112 -3.1774038333 -29.9261264722
-17.8500827657 -8.7262824726 -29.4730342792
-23.8994029373 -6.2526549631 -27.4406109276
-17.0716066833 -0.2971870704 -28.0593258276
9.1344088832 -1.4205809811 -31.6405561726
3.8999337698 -4.7352830030 -33.3756692182
-0.4239625437 -1.4223558501 -31.1115439597
5.2923841187 2.3318138216 -29.2668632692
-1.3897750710 -8.5588395751 -34.1282388656
-6.2966077631 -12.7538465071 -33.6498614138
-11.8785774481 -10.8357385137 -31.5749356467
-6.2856962105 -5.8810849854 -31.9776185997
16.3102726961 -9.5590298860 -35.2443839520
11.7644539992 -11.9830075472 -37.0133701156
8.0182625399 -8.2645717632 -35.5340616950
12.8211890483 -5.4284546769 -33.7795128861
6.9702385655 -14.4263020297 -37.5197968872
2.6124936180 -16.7353828754 -36.6862438841
-1.3668630053 -14.7224143711 -35.5021661134
3.1158536408 -11.3781089467 -36.1673464748
4.7831623297 -19.1064019606 -36.4194102699
9.6517518905 -17.7108731814 -37.2459801449
11.2005732004 -20.9207656480 -35.0884272703
5.6905052362 -21.8333822771 -34.3710242643
14.6007744052 -15.7180236866 -36.8697928094
19.1906451646 -13.4352216648 -35.3307190043
21.1090132388 -16.8904280369 -33.7919013591
16.3581200349 -19.1889167182 -34.8626795493
6.7173371639 -24.0750681251 -30.7382526849
12.2187411933 -23.4264900546 -31.4718053105
12.9166756837 -25.0732955659 -26.9763432889
7.7784009807 -25.5508342608 -26.1191091968
17.2360648188 -22.0069027672 -31.4545200754
21.7698051506 -19.9685299932 -30.8391480144
21.4666913844 -22.5259926785 -26.8367812958
17.4676509185 -24.0424719890 -27.1560453478
-36.8309565685 12.7941204561 -18.7649224673
-42.6750921134 7.8932293485 -17.0266647340
-42.6089566394 9.9908801260 -15.0159486869
-37.9894429711 14.0688303448 -16.8018406615
-41.5163292798 5.5801202837 -19.1704764256
-34.7480838083 11.1698569406 -20.7854439393
-31.5243288916 9.0113625977 -22.8007753571
-38.8187512355 2.9439281881 -21.3947463131
16.9717796269 -26.1989652740 -17.9384122236
20.8724023435 -25.0048555118 -17.7097881447
21.0825846778 -24.2318653916 -22.3022288565
17.3194113944 -25.4254271447 -22.5261591797
12.8907947345 -26.8602950489 -17.9271711486
8.5821706424 -27.0280787460 -17.4021636689
8.4112812264 -26.4964564420 -21.5237798113
13.1131939010 -26.1812238542 -22.3377727321
-49.9587410174 -14.5065847025 -6.3062192317
-46.7572428711 -17.9814192238 2.1954463976
-48.6399265116 -15.3897020655 5.7136312099
-51.7913449045 -12.0170342774 -2.9381454290
-37.9196569306 -17.2184916800 23.8001153690
-43.5571673573 -17.0749352219 14.8597102001
-41.9043480581 -19.8953055720 10.6596107465
-36.5482985681 -20.6628554613 18.1667512622
-48.1245147933 -5.7449958910 3.7181747165
-50.4264420885 -3.4239357948 -1.1821794894
-51.7340627791 -8.3156635758 -1.2006197422
-48.8720578423 -11.2026600794 6.0862460864
-44.0914335563 -5.6442703986 7.5739170498
-43.9859442112 -10.6746478274 11.9362395023
-38.4464276007 -7.2946467585 14.8416788769
-39.4095300457 -3.4239865698 10.0188971064
-36.8944280680 -13.1891683837 27.3082463138
-33.8068549319 -9.2758654668 28.1419919872
-36.5972725390 -9.5089590697 20.8301239312
-41.4892150272 -13.5168248425 18.4795135518
-32.3498167744 -9.4163311149 36.8619058966
-28.2379937829 -3.0327864846 46.2981045198
-27.1383427012 -0.5859568903 44.9623118633
-30.5554262568 -6.1174902370 36.3156166619
-27.2006384005 19.5064812420 -14.2606365078
-24.1494011443 19.7306439573 -14.8779046489
-30.4881635900 16.7593819478 -17.9723345161
-32.5885415424 17.3162134252 -16.4324539672
-20.7036017800 19.5082770191 -16.2224328011
-17.2278692299 18.2890349997 -18.3089621462
-24.2181722010 14.1235493145 -21.6514130749
-27.7502189471 15.7770074704 -19.7304870570
-32.3610447392 -17.3184656629 31.1579307891
