4.6903540663 -4.6745880036 40.8332554445
2.2726784720 -3.9182376310 45.7434375963
-27.7188130856 -14.4901426529 44.3789083027
-25.5927417122 -7.8430255550 51.7546297827
-28.9631525873 -6.0439378764 48.5781146065
-32.6209837251 -13.2467927910 39.7970311150
-29.9905580050 -3.4561155126 46.0025956393
-34.2664678580 -10.2634863580 36.9032475172
-32.1421507897 -6.1084671147 36.0422972752
-28.6642572270 -0.4607767953 44.2838720516
-38.9825511728 -14.1485204843 27.8368707735
-43.7186006619 -14.2371804258 19.5840685471
-38.4001120393 -9.4935672462 21.6974544614
-35.5002973546 -9.3057782299 28.4123553371
-49.4298450374 5.7141574845 -12.1874424566
-50.4505820930 2.6480002457 -14.1059060613
-54.2016546350 -3.5762805027 -7.5622385492
-52.6765630800 0.6510615445 -6.1463524492
-50.0641826488 -0.3562543301 -16.7266713409
-47.8127545903 -3.3152210728 -19.8931536976
-52.4949788742 -10.0738056569 -14.1733731889
-54.3443619120 -7.1641580176 -10.3081202414
-53.0447354369 -15.7296293736 -6.4160221757
-49.6005333809 -19.7920636232 2.6817868422
-51.4188324128 -16.5607970609 6.7877272189
-54.8165357581 -12.7815908187 -2.3480813421
-46.0315164669 -18.5741908470 15.9369123355
-44.3671046270 -22.0363757821 11.4470008069
-38.6252927221 -22.8687511129 18.9936003961
-40.1286958605 -18.9705990765 24.5523469196
-26.4620198967 -23.6338501719 30.4661087909
-28.1091655739 -19.8515551697 37.2203749874
-34.2021637078 -19.2094826332 31.8005365636
-32.7319699807 -23.3263424303 25.2227333696
-51.4753088839 -11.7594144978 7.5592640403
-50.5167901760 -5.8980651955 5.2949042349
-53.0820150063 -3.5057087264 0.0130678843
-54.5981906691 -8.6695136496 -0.1418940352
-21.6771760929 -27.9819497085 -7.0078422329
-18.2639788530 -28.9035342533 -1.8126749436
-23.8989650933 -28.1961894732 2.9377225271
-27.8495232742 -27.0682440109 -2.7886652216
-14.7823073762 -29.1794115944 2.8355075458
-10.7172137400 -28.9190378285 7.2482342799
-15.0072033254 -28.4390046383 13.0050767157
-19.8015218273 -28.6316020072 8.1007817736
-9.1476674095 -28.9100197261 -14.2406103882
-6.9689335985 -29.4649865200 -9.9005884490
-12.5821459576 -29.3009597052 -6.1055806280
-15.4179458441 -28.5886229113 -10.8278364333
-4.7655910490 -29.5443302787 -6.1367771268
-2.1003469051 -29.3086990223 -2.5705803073
-6.3686313056 -29.1858451937 1.9674166613
-9.7205636887 -29.4508733969 -1.9584502322
-19.3047459656 -27.5883721449 18.7036633057
-23.3309667574 -26.1073759511 24.3451257073
-29.3608945522 -25.9833560914 19.2316858517
-24.7896849985 -27.6460250449 13.5807611830
16.2560335898 -27.4351079114 -8.4998613472
17.0127526336 -27.9203760849 -13.1772675217
21.1657464914 -26.4389226203 -12.9255403367
20.2758999894 -25.7847809395 -8.1009134425
2.1933337161 -29.0959487161 -19.8816273963
3.1236359833 -29.4246206836 -15.8277355797
-1.7427415198 -29.4899580899 -13.2070800818
-3.2661467024 -29.0735306421 -17.3058965037
30.8259001828 -22.3337862485 -7.3022507001
25.1215272461 -24.0884146490 -7.6863565184
25.8164088499 -25.1231922304 -12.6507037442
31.1103277438 -23.9694198801 -12.4684857584
41.9226332339 -16.7047007236 -8.2740554876
36.6819526646 -19.9665758760 -7.3890535743
36.7373180173 -22.2887645256 -12.7050238307
42.0143645258 -19.6372030063 -13.6959896865
40.5696970574 -21.6269982567 -18.8924265306
35.6221270920 -23.7157555352 -17.9513132798
33.9757243594 -23.6439690775 -23.0960843062
38.2764337318 -22.0407829746 -23.5137171011
-9.4060348916 14.1990695441 -24.6894135919
-16.2697280370 9.8488552572 -27.8052028208
-21.1686068150 13.1937372183 -26.1795523688
-14.2108368560 17.5096808172 -22.7362638219
-23.8961442439 4.2072011719 -29.2722917025
-31.5372227887 -2.5629976114 -28.1262095740
-36.7807018950 0.6898269591 -26.1777800576
-28.9610711121 7.5692409118 -27.6736079443
0.3156391898 7.2007400566 -29.0840793258
-5.9732250377 3.0753019214 -31.2939046825
-11.0862875943 6.3896661303 -29.4480172080
-4.4471454093 10.6761328239 -26.7816268736
-12.7578205995 -2.0638923900 -32.5173555634
-19.4504786628 -8.0044307242 -31.9774973526
-25.6262873592 -5.5165976136 -30.0088721246
-18.3720190298 0.9172984867 -30.8148963688
8.4494469893 -0.2777137799 -33.9093419818
3.0730299379 -3.6094726713 -35.6226817299
-1.2589834385 -0.2002858219 -33.3845745267
4.5949296983 3.5945341619 -31.5026187140
-2.4442647237 -7.5621560338 -36.5287253618
-7.6690156823 -12.1345678345 -36.0387543234
-13.3838907775 -10.1456343338 -34.0263125544
-7.4173071227 -4.8247712179 -34.4533558462
16.0329598132 -9.0613351854 -37.6991176737
11.4456211197 -11.6116335996 -39.2179248024
7.3845390074 -7.3910069194 -37.7718473873
12.2840805880 -4.5081746028 -36.1426492088
6.5535825175 -14.0730600663 -39.7059583004
1.9298211804 -16.5404893689 -38.8259021928
-2.4166199088 -14.2408271953 -37.7875084540
2.3375595989 -10.5813530665 -38.4814616121
4.1078225114 -19.4758135307 -38.3675918622
9.2784508021 -18.1134506188 -39.2530427569
10.5646964341 -22.2236522637 -36.8065100858
4.6900277586 -23.0102112688 -36.0055603126
14.4347937454 -16.1661441920 -38.9690276198
19.1595030325 -13.7740805736 -37.7335402175
21.2286711128 -18.2965563459 -35.8986939010
16.1409846522 -20.5799679261 -36.7028576049
5.5184380143 -25.9752355429 -31.8496845900
11.4427900065 -25.3698409055 -32.6831161897
12.2793042400 -27.2622967130 -27.5617856159
6.6810826470 -27.8558155260 -26.6189141619
16.9635768350 -24.0092414445 -32.7666879725
21.9070198038 -22.0922482059 -32.3453492445
21.5801009343 -24.8155828157 -27.6093599066
17.2628151458 -26.1912363800 -27.7941909187
-38.3268093091 14.1676687198 -20.8875390824
-44.8341139822 8.8134742055 -18.7927797646
-44.7498903454 10.8166467479 -16.6569466747
-39.3788442363 15.3294929835 -18.6889122628
-43.6688950574 6.5027337126 -21.2360486913
-36.3497192070 12.6026507992 -23.2609090666
-33.1923870098 10.4419323109 -25.6606497609
-40.9257616679 3.7896914291 -23.8543039624
31.9106847763 18.3536071439 28.4488676944
34.0985154768 24.6227481270 23.6891566409
27.7300215252 29.7762113550 27.7285997853
25.5895934170 23.6961750028 32.5283386859
39.7992879690 7.9950182066 18.5030862749
42.5807653577 14.4370234374 14.1909252500
39.0737689938 19.4450302144 19.0489187249
36.5471240520 13.0253362341 23.6943956010
41.9312059529 3.3526708764 13.0240826357
43.2695967701 -0.9225359631 7.3539172705
46.0920143978 4.7505662652 3.9683205697
44.8213136298 9.5258431074 9.1578890799
44.2039026956 -4.9623485322 1.5364076033
44.9841557778 -8.8335975100 -4.3458076877
47.2407108227 -3.8662334941 -6.9282279649
46.7843028117 0.2621405795 -1.3835412376
45.7210027854 -12.5382514634 -10.1713777634
45.8857074958 -15.8155204621 -15.7865992058
47.8412260187 -10.8683951044 -18.5296930468
47.7548733424 -7.6391911946 -12.7211174269
42.8181027747 -14.6237016888 -28.0626540735
46.2350034877 -13.1725991522 -23.8336395815
44.3101662994 -18.1419120224 -21.0055110861
41.2904018737 -19.2216035391 -25.2236691335
34.3120986256 -16.9146785837 -31.5612787042
38.6190558161 -15.7467825492 -30.5965361691
37.6620245949 -20.1411041942 -27.3539107615
33.5690413810 -21.3431005516 -27.7616407688
30.2171018655 -18.3480075923 -31.8291157725
29.4797203194 -22.3720868927 -27.6766630024
25.5595850634 -23.4979278899 -27.5306113094
26.2468605564 -20.1071418851 -31.9887452757
25.3061465015 -25.3491387552 -22.6016629213
29.5069254536 -24.5763874144 -22.8079549564
30.4982416009 -24.8861350096 -17.6433023184
25.7477497781 -25.6820781258 -17.6263544398
17.3319502402 -27.9836597346 -17.8839295932
17.3598264600 -27.4444063225 -22.7053619611
21.3524709341 -26.3119999265 -22.6116199143
21.4391774379 -26.7135491027 -17.7552538986
12.8763038134 -28.8886928446 -17.8654623185
8.0030769042 -29.2721207124 -17.3585944206
7.5641338403 -28.8834766145 -21.6239795659
12.7769313849 -28.3554651063 -22.4835441601
-16.8189923993 33.9662054502 -3.9915956200
-13.7448196755 36.5215614266 -5.7306378568
-10.7142112516 32.5330426070 -12.9136406100
-15.0125826756 30.7648609366 -10.1066515440
-17.0598158379 24.4506937258 -15.4623294142
-14.8598292740 27.5925239779 -13.7623440470
-10.3784948988 28.0007992012 -16.9682736266
-13.3349939509 23.7048396252 -18.2467397802
-21.9159294774 21.2039777004 -18.3183031996
-18.4486288440 19.9099288000 -20.6856193716
-25.4015834880 15.8000555017 -24.2409465056
-28.7961147823 17.4626741970 -22.0183423855
-27.7201942581 21.1654603468 -15.1804372851
-25.0028862401 21.4476290186 -16.3961009777
-31.3885278666 18.3956265891 -19.8997441296
-33.3929677077 18.8615558339 -18.0046890028
9.9585280617 33.6255633178 35.3483642100
18.0167922708 28.9094617771 34.7887167662
20.3200380874 34.4446835282 30.4439543469
12.2608251537 38.5765713580 31.8949075695
12.2888075753 -28.5095630741 -9.2315489707
8.4058592011 -28.9509699350 -9.9353233194
8.2827352726 -29.2180421777 -13.4993799342
12.7559910759 -28.8862514488 -13.5005664841
1.7437608352 -29.2687751987 -6.3665478650
-0.2273615141 -29.4950548216 -9.6675195793
3.9688840907 -29.3600484598 -12.2869023639
5.0533962332 -29.1355576308 -9.1128237527
8.9750788433 -27.6500646085 -0.5449870785
4.8585883456 -28.6893584998 -3.2162068831
7.3534193654 -28.7561205439 -6.7030955445
11.0417983968 -28.0572034244 -4.9506743051
-38.8460721873 -23.5659082427 -5.9069025730
-45.2046503258 -21.9931838494 -1.7805942127
-48.7633271579 -17.9901896258 -10.5994711564
-42.4048000444 -19.8643415752 -14.1526717797
-40.1344298761 -24.3977500823 6.5323181522
-34.1832467578 -25.9313668650 1.7539367837
-29.5746462018 -27.1202266282 8.0555043832
-34.8239563386 -25.4651706845 13.4427040894
28.5006205513 40.6581840876 5.6952492644
29.8636550921 39.1042385150 0.1418741738
24.5711536856 42.3431871128 -1.2674959713
23.2087273693 44.1429377343 4.1693544545
39.2347407095 30.3914921648 -2.2597230270
39.5686611827 29.0354362846 -7.5185720407
35.7239004483 32.1040757328 -9.1874808415
35.3591072004 33.9387225131 -3.8713609281
44.7541305126 20.4930943822 -8.9403040664
44.2117336170 18.6555448234 -13.4898365327
41.8243980084 21.7113532919 -15.3167143949
42.4487551138 23.9897038714 -10.7035818774
20.7629699139 38.7984423024 -13.2294059162
14.9751559363 40.0559028209 -14.0141733740
14.1375349972 43.7269922334 -9.0066294138
19.9717000473 42.2080948383 -8.0143210951
30.6533123127 27.8802447564 -20.0130522164
25.9427435297 29.1273615109 -21.0131080516
26.3435673791 33.3388790950 -16.9234427576
31.1940673580 31.6594569026 -15.6700145678
33.9360934059 22.4490845289 -22.5871456525
37.7039463239 20.8514291472 -21.1978433330
36.5045185377 17.0085500654 -24.7649350863
32.7369869042 18.3311996750 -25.8691478204
34.6664048215 32.5783977311 14.2210064488
30.9855427530 37.3904281506 12.7953810865
28.1616513922 37.8136343787 18.2362516415
31.7599155873 32.8123040533 19.7014392236
43.6190540778 22.6498358324 5.7932340135
41.3961981497 27.1271622673 4.5928681545
39.8378867545 27.4386065465 9.9510728142
42.0076041563 22.6283893061 10.9805738255
47.3336696761 12.6437752470 -2.3807448444
46.4529185558 17.3624699929 -2.9935336444
46.0445937426 17.7334404497 1.7014000013
46.7918338171 12.7021708987 2.1329811449
9.4430911729 30.4638015974 -21.2834290985
3.4085510021 29.9824513387 -20.5596899439
3.1974072036 35.2473542460 -17.7037042832
9.3527578946 35.7299449221 -18.2834783518
19.4748267321 20.6471032364 -26.3570275397
14.4244460074 20.7993548704 -25.7061732702
14.9442654661 25.4793406637 -24.0125480712
20.2345451298 25.2526975368 -24.3487168269
23.2983394380 15.8832911276 -28.5740366739
27.5717189735 15.1522381159 -28.8264603590
26.6504427791 11.1432234595 -30.7262781096
22.4685568611 11.8437676626 -30.2122992673
46.6220772237 9.9671305664 -14.6649861256
46.2042814390 7.5651497836 -18.2337936194
44.6810878204 10.3525076642 -20.0074331027
45.3258464612 13.1456767532 -16.1004037959
40.8771422550 5.5886369100 -28.2091875917
37.7792246027 7.5876605960 -29.5542197974
38.7399131053 11.4584015389 -26.6959318523
41.6841637098 9.4086369917 -25.2352832381
48.0351440194 3.4835584580 -10.8611829981
47.7405546072 7.5326169713 -10.3445180854
47.8899214639 7.7681974414 -6.5197396171
47.9957969753 3.2088940709 -7.1007367604
32.5699314814 1.4634072967 -34.1169114715
28.8889807614 2.6320131866 -34.2005614358
29.7388489267 6.4213388826 -32.6819865731
33.4450355566 5.2788682683 -32.5302461440
34.9487241982 -4.2334676105 -34.5143158815
38.0358636464 -6.4823251540 -33.3578568022
36.4581278658 -10.4633173920 -33.5756497662
33.6329616624 -8.3068386252 -34.8231602163
47.9773897206 0.2506188587 -15.8124916545
48.1800389383 -3.8221358030 -17.8479712844
47.3958508736 -1.9930326092 -21.2852763613
47.2582937316 1.9102903898 -18.8868888502
45.4781535456 -3.6611592792 -26.4327190890
44.6316288186 -7.7559827883 -28.1754162427
42.1432132351 -5.0255574446 -30.5907283549
43.0046099114 -0.9205058398 -28.8132930723
29.8204701418 3.6740597375 27.0436197287
28.4585110386 -1.6757984854 24.6249548082
32.6115209317 -1.1928603023 21.7629921951
33.9975184862 4.1326851771 23.8576849544
20.8744777149 13.9732378327 35.3024430804
21.5456490612 8.7020044517 33.7692714318
26.0473869499 9.0187143169 31.6987972974
25.6598591535 14.7219869292 33.2065779587
37.6156169200 -12.1865355594 4.1299176715
35.4310483204 -15.7931240692 1.3182662767
38.6836642255 -15.3846183483 -1.9637621308
40.6726984881 -11.6466285932 0.5167413781
34.6964205241 -5.3589838232 16.1065294040
32.6155940230 -9.7035851745 13.3905866789
36.3039154945 -8.8992376713 10.2169177122
38.2507839671 -4.5281861477 12.5781392191
-14.0815591861 -26.0625920566 26.4863473275
-8.2956367385 -25.5519536369 25.8108223388
-5.6835990427 -23.3860496552 30.7559147357
-11.5432202839 -24.3642383879 31.7866270539
-7.0492303056 -27.6713875031 14.4809764135
-2.1632557563 -27.0927856282 13.3372255607
-0.2237602228 -25.5319238101 18.1065501418
-5.1796607756 -26.3898818718 19.6076155303
-0.0287703292 -28.4658434736 3.3050354289
4.0179990931 -27.9800279190 2.6518719026
5.0945825199 -26.9924812962 6.5745466841
0.9207826798 -27.6197669292 7.6178594783
-1.2809936392 20.2812975505 -22.5517825438
-6.2985106730 19.9639258865 -21.6611483077
-6.6559982403 23.7818011648 -20.2129894301
-1.7367287104 24.4959590584 -21.2944394887
8.6492824328 12.7243617487 -27.3341530575
3.7079940404 12.7176520170 -26.3406136278
3.9181528836 16.4718007090 -24.8814417759
8.9577800969 16.5502069829 -26.0121847333
16.4466004079 4.6427129434 -32.2635152973
11.9974492837 5.0632715466 -31.4032796134
12.7970387532 8.8164025898 -29.8320343146
17.3001322901 8.4626628400 -30.8158670832
23.1329455080 -4.4734648426 -36.0714897009
19.0458932691 -3.7389848102 -35.7770602579
19.8836787683 0.2154524163 -34.4833366380
24.0470658332 -0.4426869878 -35.0735592822
-33.9387162986 -23.3105218583 -13.5954051400
-31.8078771141 -22.2001634734 -18.8364552456
-26.9868980270 -24.5627469694 -16.8709893645
-28.6622863315 -25.4636940857 -11.5958548600
8.1129149058 -18.3266554444 23.6494746133
6.1199270532 -21.9420622346 20.1124095916
9.7305824661 -20.8203163928 17.4910381388
11.6108183306 -17.1676575098 20.8819590564
4.2595244626 -12.0182136777 35.7944840029
2.0551392904 -17.5889902731 32.7458610755
6.3539359025 -15.2711542820 29.8289173822
8.2971284544 -9.4334292269 32.7021177180
-12.6185075226 -26.1665239805 -22.8193944674
-14.9429323898 -27.1326893799 -18.2483092064
-19.8259845692 -25.5076060355 -19.9482187627
-17.1234271384 -24.3287861615 -24.5201636567
0.1662201848 -27.0720371855 -27.6677992096
-2.0260503341 -27.9089466796 -23.7764277256
-5.9307199525 -26.7013588046 -25.4376077713
-3.5222505960 -25.6922842931 -29.3779402204
16.8632988470 -25.9055460807 -3.5634442815
18.1417703853 -24.4415242232 -0.9848923368
15.1463343023 -25.0486315403 1.1957366143
14.0737041680 -26.4276217897 -1.4829846012
11.4349940993 -22.6914562618 11.6396866261
10.0353244433 -24.7860425780 8.4461133466
13.2802181479 -24.0244308328 6.2201349084
14.7175142612 -21.8734216563 9.2439587637
-40.6283758370 -12.2259648497 -23.3074465530
-45.5050720650 -13.8715102551 -19.4145818922
-46.4451856343 -9.5823130483 -20.5807569194
-41.0693039465 -7.7844059953 -24.0928646758
-26.9890821873 -16.3293135797 -28.1648475994
-31.8908301080 -17.9346654525 -24.7879213954
-33.9692590508 -14.4995936041 -25.7747995833
-28.3860771747 -12.7833189993 -28.7066515416
-12.9140159106 -18.9997315628 -32.7505704678
-17.2551681271 -20.5732552597 -29.7348821701
-19.8605567104 -17.7837876116 -30.5174947954
-14.8496889167 -16.0946893658 -33.1717145291
-1.0548032605 -21.1577445520 -36.1586542887
-4.0719017559 -22.5454141707 -33.8703113269
-6.6374176501 -20.1819133735 -34.6598277352
-3.0856635372 -18.8738918300 -36.6883711471
29.2433893903 -10.6537513315 -35.5661962301
27.8939571884 -14.5095067135 -34.9347649008
24.8974706799 -13.3895596655 -36.1338532875
25.9580308402 -9.4523680113 -36.3332157304
29.3686449757 -19.2457636781 0.9223981166
25.5482257614 -19.7599692367 3.1085096907
23.2550085070 -22.0564301850 -0.1911179211
26.8906645794 -21.6144953405 -2.2762301328
22.3425277813 -15.0349378571 14.4370330435
20.1209727656 -18.3686602913 10.5844814363
23.9995322385 -17.6321059156 8.7054039631
26.3464442490 -14.3187402528 12.4903667550
22.6305873849 -7.0263566231 23.7456831818
18.8572308245 -7.2983920624 25.6153759205
16.9979211268 -12.0954175011 22.0467553675
20.6566682294 -11.6338264338 20.1343358115
13.5903882707 3.2967452298 34.8109042724
13.2045865583 -2.1881542483 32.6516862133
16.6953152427 -2.1025154604 30.6853390096
17.3541799462 3.2919695094 33.2810015546
-25.8106160824 21.9445512318 15.2813382276
-26.0944402813 23.0182479978 18.7316571871
-24.0010766234 23.5170783763 20.5801008707
-24.1974283827 22.9249283577 16.8571143649
-26.5979920142 18.9851990116 12.9604365850
-25.8619450214 16.8420172389 11.6805379478
-26.5707392908 15.2525662477 13.8943455112
-27.6901659617 17.3762613595 14.7029745434
-24.0141049129 9.9850684493 16.2565728090
-22.8789664832 9.0540977732 18.8544333295
-24.7420867874 10.1599795607 18.4899772075
-25.3868493444 11.6292095309 16.0264606833
-14.4753997566 10.7559288373 27.8551230710
-17.2568872383 9.6048699415 26.3002283538
-18.9150487322 8.7034951370 22.9826278432
-16.2004071599 9.1864265500 24.6409060777
-22.8302217010 25.0648940957 16.4657291651
-23.1441259886 23.9180428686 13.2406217101
-23.0987876116 23.6385583170 16.0664302712
-22.2541495053 24.7429759547 19.1538183918
-25.9231337744 12.9334651603 4.2017923040
-26.6053358715 11.3904179234 6.5168480741
-25.2570899909 12.9867612523 5.5141153883
-24.5351926266 14.3922026548 3.0783877947
-29.0986812112 5.4396048422 11.9912304934
-27.3602832741 6.8392548603 12.0121971519
-28.0963739740 8.4468010997 9.5026356845
-29.8095465773 7.2600412374 9.5225522257
-24.0543258927 16.4215246532 6.5013886547
-24.8273028321 13.9279660868 7.0416052912
-25.3207465179 13.0380170547 9.3815440479
-24.8792708396 15.5947781495 9.0379236340
-34.6128986643 1.4830207160 12.0484096280
-35.5652270811 -1.5541056473 14.3740214156
-32.0862944024 -0.7600072865 16.4758216239
-31.4225130305 2.1012702073 13.7293822098
-25.3014894964 9.7611510228 12.4422374028
-25.3243961339 7.5467299439 13.6827390977
-23.5163137869 7.0805492418 16.1113480581
-24.1432260712 9.0353480005 14.7149406123
-16.7674817467 7.6591946094 23.2715602343
-19.9887848749 6.1695094257 20.4846157332
-18.6426739109 5.3440391592 22.8434097468
-15.2012679560 7.1549549545 25.2575758651
-10.0396628627 8.8237482477 29.9350449185
-8.2034663855 8.5006450447 32.1153604374
-4.5025150683 10.1112654930 33.9432854247
-6.3923528238 10.9349190707 32.3224943001
-19.2167853434 25.1229227224 24.7063034994
-16.8625500630 24.1071133656 27.6595790359
-14.1620950202 24.7597093092 29.4118005691
-16.9515171548 25.9977552933 26.6965333077
-8.4596988268 24.3727830458 32.9952147713
-4.9286216109 22.6099872735 34.8341246790
-2.7003773578 24.5291222919 35.4329937262
-6.4380343920 26.0553875173 33.6598097727
-20.4276834657 23.5040614544 26.3842190480
-18.7920337835 22.8468371099 29.3961180253
-15.8167454530 21.8380288823 31.0543924401
-17.5075347952 23.0317362479 28.5355399055
-12.5252792171 18.5725902125 32.9660205441
-12.9025599148 16.6497408524 33.1776865278
-11.9709717727 14.4107871033 31.6314632669
-10.6688297126 16.4172632730 32.3691883772
-6.9340876007 16.4353166122 33.2324318754
-4.7757210233 14.4801763421 33.5473793800
-1.3879316527 16.6994280082 35.3503059848
-4.2593524065 18.6690534699 34.8026117238
-22.2831611658 20.0560911226 -0.5313085049
-22.7952719235 19.5244574269 2.7949741604
-22.4464000210 21.8202193102 1.7662442004
-21.8821249775 22.1050486750 -1.8101415024
-22.6135579940 23.8181377559 4.3116385270
-22.9527806069 24.1029145337 7.8684278550
-22.6987575157 25.7091888244 6.7846352935
-22.2161140630 25.6824019614 3.3886260231
-22.9430638306 18.7889029256 -2.7854218662
-23.0417555567 17.4185549015 -0.5866407651
-22.4463615351 19.0490399389 -2.0057548831
-22.4585036706 20.1410960816 -4.3320564254
-20.1812006843 23.9496553277 -9.4354427784
-20.5946263964 24.1148142249 -6.4967573989
-19.3854992936 25.8612119884 -7.7925901512
-18.5836203440 25.4151850678 -10.9357359834
-19.4884507480 27.9811963694 -4.6119525941
-20.8204438398 27.8731703654 -0.5802239986
-20.2980888758 30.1307954620 -0.0212958108
-18.6622138362 30.2271163685 -4.1765260013
-23.3114707437 22.1104631105 -9.8810802011
-22.2966152214 21.9365952911 -8.0915042470
-21.6251978714 22.6912948311 -9.9897735148
-23.0353624508 22.4045993579 -11.8895003679
6.3570186878 10.6407778663 36.8342852887
1.9419192154 9.9327914807 36.4524377514
4.4891281704 7.6837753296 37.3098953593
8.5683991025 7.6115849413 36.8725415912
9.4613335209 27.5636580268 36.9650115951
3.7451572163 28.3829635888 36.8145323162
3.3847658169 25.4856207683 36.8584944657
8.7669246444 24.2294385332 37.3263792088
13.8233184773 16.6629808438 37.1150376314
10.4132927809 19.4864736205 37.3849451609
5.7696956419 17.0127881051 36.9564531338
8.7206830940 14.6389603710 37.0675927803
7.3643923994 50.1754959941 10.3654791837
13.0690572855 48.4728783186 12.1247792986
15.6036096262 47.8720485435 7.6036976902
9.8114332229 49.4175822012 6.0850594439
0.1881668992 48.8821804507 0.1421008636
5.8539841814 48.9071191834 0.4383736441
7.1631840534 47.0871876239 -4.4954015324
1.4118530232 46.9153479237 -4.5530296530
11.9506388346 45.4535252834 23.1299918002
16.7318678426 41.6510519616 25.6010780887
20.4724021174 42.1545188605 21.2171497075
15.4802147092 45.8247982868 18.7991308263
-8.2479297433 42.1363164426 -5.7672661232
-3.2312042296 43.1417830872 -8.1228949591
-2.7998028325 39.1734170157 -12.4743042186
-7.8363701368 38.3374700606 -9.8688152878
-40.7431229793 -5.3350160025 13.6748711791
-43.2247886229 -9.2343161767 15.0686968888
-46.2985572973 -8.4231519029 11.2014873638
-43.6132161511 -4.6232998426 10.4774501324
-23.4195214280 3.0142331324 38.2582583835
-26.4827435161 -0.4491352870 34.8749757615
-27.2647063072 -0.0637259440 39.0552378738
-24.2768498437 3.8504615436 42.4234842811
-26.5778827606 -0.6976986797 24.6243755208
-30.0110212742 -2.3803831634 21.7447899553
-31.8209014326 -4.9961704644 24.9535334642
-28.3627068707 -2.6286026555 27.9295626343
-14.7989628371 7.7601445631 38.8274555173
-17.5716351665 5.2946740343 35.2890084361
-19.2337463116 5.6594568845 38.1243062098
-16.5635556166 8.5257610064 41.5487124627
-16.7678373187 4.3008166052 28.6552512347
-19.4601061218 3.6736655866 24.9516864140
-21.5816530006 2.3618533906 25.7378336552
-18.6912122649 3.5484025978 29.5605684956
-4.9734626955 9.4650308206 42.5552794098
-7.6461881390 8.4540861909 39.3818342910
-9.9423285123 9.1782245420 40.3127020528
-7.2484875913 10.7354531114 43.3808594577
-5.7484214881 7.5932446389 36.4059166249
-8.8920002852 7.2250672727 33.3147916098
-11.5520490941 6.1784922629 32.4381359932
-8.3426252801 7.1842318285 35.8922613995
1.3328884107 4.1810298557 48.9504003309
1.5701374564 5.6925205334 45.6648152219
-0.6845718672 7.8612582488 45.5605966580
-0.1684006981 6.9571439063 48.8202927076
4.7030540930 3.0939706697 41.6647793464
3.3150354989 5.8631595140 39.2357518120
0.3255769380 6.9158480222 39.5749360931
2.6293966687 5.2482940417 42.3604295827
-12.1350327626 -19.4415646820 42.7029625984
-17.5423724663 -19.1339092517 43.9608695233
-20.3199781648 -21.6605972217 38.6857264201
-14.8192788085 -22.3563145455 37.8327961899
-15.3265825236 -10.6446611042 53.6460705378
-18.1561735641 -8.3551537367 55.5839621113
-21.5021866900 -11.7705368875 51.4677826028
-18.6527531098 -14.3788998062 49.8961573493
-8.0447907040 -6.8989165304 53.8033491284
-3.3154784995 -5.7468527605 51.0211109516
-1.3119030362 -1.1880739224 51.9626916781
-5.4149288719 -2.3778227868 55.0615344906
-3.5305185913 -13.3274261280 44.2597573858
1.7280462618 -9.7043313859 41.3940790152
3.4098927767 -4.3584076388 43.3597721613
-0.9356709137 -8.1244539703 46.5044223041
-26.8004131556 -11.2737213212 48.0486661657
-27.5097409517 -7.0611286209 50.1510598822
-30.8246460907 -9.7147881946 44.2524427394
-30.3136526495 -13.9775111581 42.1442375757
-32.0796088896 -6.9813707820 41.5168028489
-33.4763437995 -8.1529561786 36.4428526504
-30.4131775464 -3.4888108348 40.1121069875
-29.5618773799 -1.9807879286 45.0639708300
-41.4067233852 -14.5329252845 23.5792075798
-41.1601577953 -11.8931039578 20.9305112802
-37.0448192177 -9.7436362302 24.9279593985
-37.4926952111 -11.6864470285 28.2451799435
-50.0574656777 4.1759295360 -13.0881598086
-52.6523205666 -0.5311625811 -11.0049746944
-53.5543076128 -1.5159045139 -6.7434589787
-51.3203632343 3.1234992670 -9.2725156476
-49.1701695411 -1.8367383641 -18.2905733353
-50.5499032570 -6.7850735949 -17.2705730045
-53.6872545909 -8.6819476221 -12.1826157518
-52.5744238037 -3.8377995044 -13.7331134639
-51.6840403681 -17.9740316390 -1.9301931002
-50.8156869748 -18.3331595207 4.8698697291
-53.5033395708 -14.9107194315 2.0955582872
-54.2118244302 -14.3713005515 -4.2585542179
-45.5430520744 -20.4500737759 13.8089490714
-41.5374237288 -22.5641889211 15.3786799705
-39.7066273227 -21.1047936283 21.7848324029
-43.0972320576 -18.9747070956 20.2571500763
-27.5056926735 -21.9231508765 33.7782324356
-31.2084735182 -19.5926621796 34.6382604875
-33.7433148628 -21.4887504771 28.4180051489
-29.6945327451 -23.5355439086 27.9198381995
-51.1153407763 -8.8579379914 6.4875748346
-52.0989143110 -4.9755215589 2.7973498552
-53.9482546391 -6.1752469357 0.1065048922
-53.4042081571 -10.4995366267 3.6867806438
-19.9614175392 -28.5491323009 -4.3035762114
-21.0818854007 -28.5922105492 0.5108845954
-25.8701076615 -27.7425663293 0.1875509797
-24.7587181170 -27.5581762822 -4.9434941124
-12.8693571322 -29.1282496237 5.0706448725
-12.8654463321 -28.7154496649 10.1004375840
-17.5377477312 -28.6295194388 10.5897803174
-17.2965553050 -28.9500778819 5.4251670850
-8.0487727966 -29.2785169878 -11.9623623738
-9.7471185020 -29.4061895774 -8.0648001842
-13.9905544346 -29.0448593238 -8.3595192815
-12.2592527381 -28.7769579710 -12.5814516719
-3.5327765758 -29.4773660751 -4.3401119858
-4.2030284233 -29.2663808942 -0.3944678767
-8.1512650550 -29.3815560724 0.0231827169
-7.2104226757 -29.5175856176 -4.1266429677
-21.3907889452 -26.9492483304 21.4978608826
-26.4740802514 -26.1244414304 21.8345446949
-27.1763768451 -26.9190986683 16.3741545814
-22.1857823083 -27.7122166066 16.1820644207
16.6968347623 -27.7148245874 -10.8361234138
19.0645061184 -27.2014587353 -13.0484331377
20.7876284810 -26.1483220201 -10.5081832277
18.2109434929 -26.6487577419 -8.2806310565
2.6864347541 -29.3334742391 -17.7622299759
0.7120377596 -29.4683192599 -14.6284342764
-2.4885417978 -29.3632030652 -15.1520406893
-0.5045663603 -29.1081769740 -18.6764897399
27.9104162166 -23.2529795762 -7.4630346825
25.5463438651 -24.6524006574 -10.1686049293
28.4022013514 -24.5690638942 -12.5276934555
31.0607277972 -23.2197333893 -9.8998822664
39.4307246667 -18.4480525410 -7.7184625950
36.8250194379 -21.2097248780 -10.0754429819
39.4853961577 -21.0967563597 -13.0846860389
42.1069398518 -18.2553196323 -11.0214814141
38.1822068764 -22.8159986255 -18.3090936768
34.7544796080 -23.9128045249 -20.5600322870
36.2028556218 -22.9682384752 -23.2743660622
39.3896954776 -22.0766044672 -21.3268814410
-12.7154128571 12.1272185331 -26.2757215527
-18.7786114151 11.5745642766 -27.0108895506
-17.5413055802 15.4506189987 -24.5007585329
-11.8535531602 15.9245008428 -23.7102690247
-27.7811866440 0.8846664994 -28.9687734619
-34.2693334184 -0.9457353170 -27.1795669772
-32.9243074730 4.2150673301 -27.2286985938
-26.5094218906 5.9142796154 -28.5023668495
-2.7597518823 5.2283266877 -30.2049229841
-8.5004954166 4.7209888651 -30.3429868203
-7.6711022951 8.6345152266 -28.1343933854
-2.0233504548 8.9436149155 -27.9124768029
-16.1819875057 -4.9969297877 -32.4575843814
-22.5481425519 -6.8112832150 -30.9828131342
-22.0730098726 -2.2540952879 -30.6497957561
-15.5534840411 -0.6063628742 -31.6415511503
5.7722830355 -1.8996087607 -34.7903172037
0.9321084171 -1.8732620297 -34.4999787243
1.7068490968 1.7682159318 -32.4611188383
6.5498866300 1.6974168974 -32.7175655115
-5.1539200477 -9.8046545339 -36.4552199069
-10.4756253465 -11.1422686176 -35.0512907384
-10.4857246544 -7.4474057302 -34.4280127389
-4.8959334672 -6.1773085110 -35.4899978124
13.7523050469 -10.3677308208 -38.5062790277
9.4976205877 -9.4529955923 -38.6447611446
9.8355014347 -5.9422924457 -36.9933810599
14.2026647366 -6.7546017837 -37.0583115645
4.1115731472 -15.3143077256 -39.3980205070
-0.0816812383 -15.3738145062 -38.4371217462
-0.1483688549 -12.3633691062 -38.2916093820
4.5740423740 -12.2633586325 -39.2440572658
6.6270981308 -18.8841486390 -38.9136202704
10.0368959012 -20.2243975475 -38.2591775521
7.6439263264 -22.7270024988 -36.4959188360
4.4174891063 -21.2353268889 -37.4187457605
16.8353418210 -15.0245687914 -38.4000845520
20.3469732685 -16.0926020281 -37.0403504345
18.7489148454 -19.4939925342 -36.3396370460
15.4231809883 -18.4433480270 -38.0663940391
8.5108846455 -25.7612156845 -32.3551614641
11.8847210925 -26.4443266799 -30.1821445178
9.5299679913 -27.6176478880 -27.1831243022
6.0962475581 -27.0365541610 -29.2867573901
19.5089812335 -23.0897276413 -32.5835420094
21.8000548249 -23.5975703042 -30.0676443538
19.4840834106 -25.5187700932 -27.7212408493
17.1584216531 -25.2361936625 -30.3524957689
-41.6630571756 11.6116308131 -20.1948649819
-44.8961286473 9.8406830484 -17.6992425695
-42.1459878418 13.1712215351 -17.9950366894
-38.9299054929 14.7821843560 -19.7736674842
-40.0816894992 9.6775987806 -22.6080059077
-34.9119361743 11.6039901871 -24.4833347657
-37.1155539774 7.2249607508 -25.0938080406
-42.4835525594 5.1955100536 -22.5526952943
33.1840547288 21.5341038023 26.2813351522
31.0662865767 27.2312401438 25.8290336583
26.8716568791 26.7792021124 30.3037449869
28.9817493242 21.0529208975 30.5933942927
41.3988607772 11.2475309956 16.5195152031
40.9980105503 16.9243252086 16.6443440218
38.0130444545 16.2804095228 21.5664215815
38.3295664074 10.4672721656 21.1438906056
42.6750699146 1.1773962250 10.2100483558
44.8745160621 1.9140480251 5.7752198545
45.5532441898 7.1117623048 6.5829276190
43.5800232817 6.4540604361 11.2362462243
44.6061840615 -6.9189139221 -1.4042775115
46.3001713249 -6.3811680249 -5.5866842879
47.0234502690 -1.8467627042 -4.1283987019
45.6797865791 -2.3629960173 0.1580184318
45.9476896612 -14.2630032180 -13.0169585406
47.1005294724 -13.4645823615 -17.1541029815
47.9303816235 -9.3455721428 -15.6560152148
46.9468953074 -10.1581690602 -11.4231209097
44.6884199673 -13.9719417022 -26.1213020409
45.5109907308 -15.8238721106 -22.4210186093
42.8707579152 -18.8418457284 -23.3036124765
42.1809199781 -17.1891888823 -26.6534541084
36.4589091412 -16.3113060952 -31.2205498023
38.1340234070 -18.2319461399 -29.0531623898
35.6499951213 -20.7915211452 -27.6554528136
33.9186207087 -19.3364630502 -29.7944421199
29.8615897616 -20.5363776144 -29.8771096744
27.5126424904 -22.9169207633 -27.5934232795
25.9482486985 -21.9584487384 -29.8687215798
28.2471379614 -19.1930484910 -31.9033963544
27.3741957351 -24.9608086413 -22.6862143279
29.9658805245 -24.9262720453 -20.2447991032
28.0718933435 -25.2927358354 -17.6075637263
25.5066745435 -25.6661862399 -20.1169666014
17.3717780983 -27.7962536816 -20.2707992239
19.3953488107 -26.8813843862 -22.6730124428
21.3985584217 -26.6234080321 -20.1729740284
19.3946303487 -27.3564496348 -17.8288439608
10.4660727630 -29.1273787140 -17.7065949179
7.8212158393 -29.1453459246 -19.4203450979
10.2196720270 -28.6630718434 -22.1488316101
12.8651310206 -28.6904937662 -20.1299584033
-15.3495347217 35.1807454346 -4.9920486649
-12.1320823216 34.6159771922 -9.4629200314
-13.0465656976 31.5940334301 -11.6038015284
-15.7779925483 32.3631110295 -7.2540671512
-15.6472476277 26.0188154147 -14.6913698012
-12.8177450449 27.8749587504 -15.4105801164
-11.6099837860 25.7465001831 -17.6602213426
-15.3050309537 24.2219960918 -16.9467960119
-20.2782208947 20.6760678666 -19.5541691442
-21.7578110140 17.9526428293 -22.5270159556
-27.2014045397 16.7359017894 -23.1409281296
-25.2014665130 19.4279540109 -20.3253393027
-26.4548011681 21.2945139480 -15.7751195079
-28.0324306281 20.0551367932 -18.3609214239
-32.4397551133 18.6675022201 -18.9335948355
-30.4062155417 20.1735053757 -16.7706299478
14.0276996565 31.3875037713 35.1437330094
19.4257977715 31.6586703762 32.8035089819
16.3445224973 36.5553448051 31.2747808793
11.3340358706 36.0434693634 33.8732887289
10.2845044561 -28.7834119987 -9.6537897480
8.3812898754 -29.0946670904 -11.6741458930
10.5228262256 -29.1035773469 -13.5960153992
12.5927102518 -28.7259663689 -11.3608655017
0.6581506226 -29.4183849504 -7.9927732658
1.8846994659 -29.4332853150 -11.1221640824
4.4580727191 -29.2627069206 -10.6439673755
3.4576532498 -29.2039496558 -7.9094116963
6.8522766597 -28.2328700617 -1.7742325099
6.2097004323 -28.7189327898 -5.0630564836
9.1013381531 -28.4626976696 -5.7977419082
10.0887279693 -27.8514730082 -2.7709027340
-42.1776317867 -22.8357970313 -3.8818110459
-47.3263300102 -20.1748668938 -6.2564869836
-45.7571544157 -18.9676754242 -12.4389894017
-40.9226264442 -21.8699393545 -10.0899566994
-37.2901489755 -25.2410365287 4.1197730445
-31.8865822517 -26.6407203434 5.0380934576
-32.3164493749 -26.3876722849 10.7219267793
-37.5037411064 -25.0493061253 10.1451490066
26.5369805764 41.7948541425 11.1483408035
33.0871991536 36.4848721321 7.1949651574
34.4968497122 35.3056597858 1.6072521974
30.7682116657 37.1859242527 -5.3759859211
25.5660724188 40.0088240285 -6.7511713851
18.8501304141 44.8009409633 -2.5932186646
17.4643063541 46.6879162975 2.6850214838
21.3146641855 45.3848245277 9.3834785958
38.3568473265 31.2948974913 3.1351812205
42.3197472452 26.5772006698 -0.6510295865
42.6527761030 25.6027685940 -5.7806057495
39.3903592726 27.0167899312 -12.5274430794
35.5919607522 29.5768490570 -14.1992980111
31.2248784924 34.7906435126 -10.7052623436
44.9230168615 21.7156846124 -4.1747335219
46.3609985447 16.5664441903 -7.5019478134
45.9326702889 15.1967066466 -11.8832687567
43.4362417961 16.1572977061 -17.7663962437
40.9043650136 18.7773056657 -19.5427711818
38.7319046805 24.2693163608 -17.1198624743
26.2159281298 37.0049617475 -12.0835393653
21.0900885140 34.6376472844 -17.8672807744
15.3980184466 35.5191430126 -18.3545541917
8.9702636948 40.5863575646 -14.2862603167
8.2028030576 44.4226479006 -9.5309784402
12.9975582150 46.4186334101 -3.7486539333
34.9612933222 26.2831405821 -18.7073748740
29.7189055641 23.6866161091 -23.6175134228
25.1483684441 24.6314393036 -24.2393846720
20.8605968972 30.0195954124 -21.6115258763
39.8125987525 15.2661042194 -23.3324420168
35.3283464565 13.0043128489 -27.8483193871
31.5734659970 14.1850461386 -28.6060098905
28.6133361155 19.3584672663 -26.5264648107
37.6019373825 27.5821299449 15.3771218192
36.8570776017 32.0034483431 8.6355580339
23.8216097582 42.3125646443 16.3856711934
24.7053305179 37.6996401393 23.2985386935
28.2126138902 32.6456808145 24.8307199765
34.6535732893 27.5365740036 20.7602376531
45.0271389791 17.7518382469 6.5776547819
44.5826229334 22.4012200006 0.7318428948
39.7302264819 22.4120925560 16.2248238199
43.3431239713 17.4570965115 11.5880106934
47.6553467365 7.7445465824 -2.4008329627
47.3748845253 12.2708365516 -6.6650358300
45.6462055542 12.4822203871 6.8473391594
46.9087041447 7.5286391599 1.9857226864
15.3461287167 30.4730133353 -21.6615422011
9.3520770798 25.3364766434 -23.3307171272
3.6713880162 24.9653606457 -22.4237603296
-2.5666041846 29.1165493249 -19.5093147733
-2.8864744838 34.2879846834 -16.4781637604
2.9298038503 40.1945124161 -13.8498331068
24.2039490695 20.1569529994 -26.6533488702
18.7386355185 16.3406433316 -27.9538881149
13.9192132372 16.5259656411 -27.0778530462
9.1520086648 20.6837359954 -24.7826154067
30.5897119507 10.2208061237 -30.8298060697
25.8041560694 7.2912485445 -32.3650391241
21.6561195383 7.9670671258 -31.7025109062
18.0424938922 12.3160172066 -29.3977621138
47.0752453393 11.4577915156 -10.7536218201
47.3768769309 6.8881217863 -13.7234363655
47.1668926255 5.0947874072 -16.4671588327
45.9404906848 4.2859744438 -21.3967889882
44.0957082254 6.9203759585 -23.4918674551
42.5640512847 13.0174863991 -21.7330575759
43.5588391990 3.1154106695 -26.4381140863
40.1009510173 1.6693367396 -30.6062817342
36.9063028122 3.7367165174 -31.8503719315
34.3126687513 9.0761397533 -30.4561602572
48.1263224549 -0.6996874153 -12.2039071880
47.7339692527 3.8061608033 -14.1172025733
47.5151343836 2.8680904284 -3.0285307744
47.8238757937 -1.3353956114 -8.2885347582
36.0099797869 -0.1669983568 -33.5134763504
31.5795484536 -2.4837579143 -35.1901961469
27.9567224674 -1.2762689241 -35.3593064330
24.9591180281 3.4815230549 -33.8241353651
39.2211620052 -2.3882253469 -32.3574068129
40.7781042852 -9.0494431822 -31.6650798207
38.8719267869 -12.8545806735 -31.8782973499
34.5051062583 -14.1942924272 -33.0127508447
32.0787820422 -12.2362335884 -34.4492225923
30.4603559425 -6.5800011560 -35.6693209150
48.1671685390 -5.0254755576 -13.9488021531
48.1116496030 -8.0629513716 -19.7585917901
47.2857202828 -6.1499931820 -23.4091201540
45.8141072859 0.4303639224 -24.1564480691
46.4583526304 -10.2257549767 -25.0618847115
43.0701829079 -11.6549215092 -29.2733450848
30.5002600170 9.3177797221 28.8893004306
25.4932857376 3.3875349872 29.6047256341
24.2789481470 -1.9889106445 26.9511805146
26.6412108202 -6.6395230137 21.6761904323
30.7515347817 -6.0903670461 19.1446307495
36.4876806333 -0.5251935398 18.3517629133
37.7828297380 4.7856536274 20.0701400162
34.6740034950 9.7866573666 25.3490714426
18.8942119982 18.9856094268 36.3750103559
16.0498281709 12.8632983574 36.4506240047
17.1414831101 8.3154677183 35.2040084351
21.2811278492 3.2771216381 31.6325855573
30.2779379985 15.1638403957 30.1029045914
24.0782081248 20.5095172628 34.1720899868
39.5664549787 -8.1407890900 6.6074963424
34.1558219090 -12.8262981478 7.4239715707
31.8404098119 -16.3046652669 4.2650632592
33.0143556258 -18.8770761837 -1.6681363916
36.3691148120 -18.6187970102 -4.6067845629
41.5677606360 -15.0520902015 -5.4374793209
43.2733843663 -11.1768875884 -3.2879847540
42.3577938810 -7.4909361727 2.6913701498
28.6257608171 -10.4680597671 16.0535291174
30.3599061596 -13.5623451483 10.2323478920
41.2894893677 -3.7008975224 8.6512615163
39.8825859869 0.3073560037 14.4623909732
-19.8170774123 -25.8722668633 26.8393512702
-16.0445652424 -27.2300242202 21.1657889044
-10.5217074899 -27.0081520878 20.6399857737
-2.8537423329 -24.5169602013 24.5235562919
-0.3427400241 -21.7578182682 28.9972147155
-3.0070299537 -20.1081126570 35.2032238132
-8.8050558725 -21.8227425744 36.8002527169
-17.4731006888 -24.4256753068 32.3729126718
-12.1175504619 -28.0283168053 15.3371121377
-8.2327810637 -28.5274756325 9.3690702541
-3.5793894425 -28.1452517110 8.5182050082
2.3804938227 -26.3838290479 11.9750957240
4.2005264080 -24.5737883494 16.2285546342
1.9950166363 -23.2484713858 22.5782137545
-4.2822422253 -28.8407639575 3.8917428778
-0.3845158116 -29.0150514911 -0.8063155882
3.3411921429 -28.6474689574 -1.1933297955
7.7446817173 -27.4456920255 1.7416156614
8.8384646702 -26.3234660441 5.2092694019
6.4774558201 -25.5941378774 10.4059890557
3.8885804161 20.4898563857 -23.6692420038
-1.1828960363 16.3363410063 -23.9058077870
-6.3960912949 16.1805620414 -23.4017566814
-11.2655762465 19.5000309927 -21.2878122721
-11.1608552774 22.8356556772 -19.4281708010
-7.6432450789 27.6023630719 -18.4635847155
13.4266601183 12.6009507091 -28.4016386269
8.1429478049 9.0252677019 -28.8822929125
3.2384380751 9.0652599969 -28.1461903471
-1.4443334274 12.6076343862 -25.6755455397
20.7803958347 4.1180988862 -33.1145007912
15.5453045433 0.8051595916 -33.7706211225
11.1171851466 1.3234491669 -33.1329996243
7.4031649248 5.3438574081 -30.6773649783
26.9537701940 -5.3465080044 -36.0852394795
22.2797385567 -8.5079587583 -36.7741896109
18.3371678739 -7.6520969495 -36.9586011118
14.7642107412 -3.0263206704 -35.3772712772
-35.3959893398 -24.2278867040 -7.8641273730
-38.8792331299 -20.6957649787 -15.7725660498
-35.9536010017 -19.3872141960 -20.7187399865
-28.7449990883 -20.8977751764 -23.4313381761
-24.5772690752 -23.4272047145 -21.7333316981
-21.9079930775 -26.4662851923 -15.0636267788
-23.4468449670 -27.1503273953 -10.0024972168
-29.8823281637 -26.1253543960 -6.0765696687
10.0951792718 -13.6554331978 26.8765504428
4.2069777048 -19.8915723090 26.4748054995
8.0054769291 -23.5985067399 14.0028185515
13.0871115769 -19.8985072912 14.9359040843
14.9826063016 -16.3357401149 18.3934806983
13.5400826927 -12.6625066308 24.2129629022
5.9950301085 -5.4321758640 38.1987627148
-0.5105462856 -15.3425003008 38.7271232502
11.9020534168 -8.0655428719 29.8622780800
9.6979288335 -2.7342907128 35.1048644821
-9.9503406162 -25.0461829329 -27.1079693205
-8.1810423390 -27.5776288645 -21.1596144762
-10.2911187784 -28.2960569288 -16.8080645391
-16.8900145496 -27.8724048248 -13.5814602613
-21.2937073948 -22.0755553133 -26.0717059882
-13.8730039212 -22.9973549323 -28.6084692946
2.5052803968 -26.0230646650 -31.1766992457
3.7862528171 -27.9787109183 -25.8613175790
1.6092702817 -28.6636588672 -22.2428043829
-4.1057544941 -28.5605379682 -19.7379803906
-7.0840966336 -23.8461861270 -30.8737661690
-0.9620729645 -24.5222120000 -32.7448161277
15.6742212920 -27.1122646323 -6.1663607497
19.6504049804 -25.3699521721 -5.7128600134
21.2553192568 -23.8731977297 -3.1019070050
19.7172136969 -22.6428270207 1.7661207473
16.4405468844 -23.3111513879 3.9204581144
12.1111416448 -25.6686469389 3.3397864013
11.1051935372 -26.9292883940 0.3781757331
13.0336395009 -27.5065111954 -4.2623826934
18.0820452680 -21.1159421642 6.9790614414
16.4720705259 -19.1047283523 12.5861484254
-34.9906783436 -10.5296912155 -26.4273792943
-38.9108226238 -16.0883678659 -22.2038525999
-42.9741342857 -17.5732898271 -17.8288114461
-49.2087095546 -15.4721820488 -14.5505045305
-50.7301689713 -11.3833109052 -16.1170902445
-45.9945922448 -4.8010141371 -21.4369021443
-40.4166568911 -2.8638956406 -24.6624176100
-35.0316419842 -5.9788446733 -26.8589441527
-21.5773566943 -14.5987015259 -30.9646750102
-24.6313292400 -19.4152129186 -27.2818773399
-28.8921736210 -8.7209378469 -28.9595917638
-22.4308003000 -10.9605084241 -31.0976628616
-8.5728267547 -17.4770276694 -35.1468449122
-10.2617564206 -21.5806198599 -31.9868489774
-15.9897960534 -12.8208983599 -33.2458733554
-9.8684592761 -14.4843045224 -35.2853813593
1.6887302127 -19.7207830859 -37.7613726566
1.7439633603 -23.0671932999 -35.3818109545
-4.3231432489 -16.1917680663 -37.0057769817
0.2560303250 -17.8775298291 -38.0776676635
30.3279973778 -15.9090399632 -33.4633870733
26.2561740956 -18.0168489423 -33.7903836648
23.5736003568 -17.0359456632 -35.4774303709
21.4381780144 -12.4167939881 -37.1096450759
27.9690159537 -16.9207129410 6.6872333472
21.7283675083 -20.3991252055 5.0259455156
24.5773535160 -23.4567567198 -5.2013033718
30.4439800796 -21.3547965908 -4.6447373495
24.5619928145 -11.1203294441 18.2172673365
18.5282628402 -15.6887669391 16.3261744769
20.3386326048 -2.1200988099 28.8686538453
15.3263014148 -7.5601488954 27.5653574112
12.8711917110 7.9461284178 36.1809049095
9.8885057452 3.3002073921 36.5146658061
-25.0645792371 20.5322250724 11.8397101090
-27.5305401686 20.8203552894 15.0087028368
-28.1958734764 22.3083609946 17.6904344415
-25.7147401765 23.6730383504 22.2643251060
-23.1627134389 23.7318506739 24.2179312336
-21.8778193646 23.8125468617 22.9423640290
-22.7355164688 23.7712038147 19.4137851017
-23.8387350157 22.1893269328 12.9651955595
-24.6646018389 18.3363280512 9.5593818342
-25.4844169712 14.4964737760 11.2431783870
-25.6698983300 13.1481464513 13.5673696161
-26.7279102798 13.5043802204 16.3890014235
-28.1745135759 15.5652086733 16.9987163094
-28.9585572124 19.4373067087 15.9316741416
-24.8743594645 11.0779466215 13.7953007227
-22.5820835169 8.5596111985 17.1650594418
-20.8089506237 8.3631188094 19.9030646260
-21.5575752177 8.5402750319 21.6038729082
-23.8296832243 8.9905376688 20.9122145611
-26.4203706973 11.6983976075 18.7852582598
-11.7918848808 12.0848632195 29.4084589026
-13.7412205344 12.6466773279 30.8067310866
-16.0868936626 11.0421107642 29.6393579797
-20.0929323221 8.7426264531 24.7277170353
-18.6509090845 8.0115926043 21.4707908835
-13.5182884605 9.7210561079 26.4691144966
-22.2208901438 26.1248305738 19.4117635542
-23.0530794473 25.6899003570 14.2457208657
-23.0529062558 24.7945592958 11.1348409422
-23.3013476745 22.5723402029 9.7503784499
-21.1776290749 24.4791641043 22.1852420968
-21.0621384355 25.7317067973 21.9465624707
-25.1608298799 14.4896256620 1.9744222749
-27.5361724015 11.6446642495 5.0603679457
-28.1306222368 10.0510280422 7.2277911564
-26.8981907669 9.9167334573 8.8825661832
-25.8111316396 11.7259218325 7.9453754918
-24.1033264094 14.8873382766 4.4755430518
-23.4215356271 16.0675515191 1.8656605629
-23.9230288977 15.8864317181 0.7552254091
-31.6888848172 4.4436275861 11.1200121017
-27.9699374477 3.3652765895 15.0863347330
-25.7836873552 5.3113124001 15.0320697494
-26.4718779629 8.5872884431 11.2556875018
-29.9431247133 8.9312550891 7.3882523352
-32.1592936526 6.3687402757 8.8548727464
-23.5187607895 19.1883026305 6.4922457032
-23.2576857982 17.1196110603 3.5804250089
-25.8929330950 10.6780545230 10.2338007531
-25.3663306519 12.1065268289 11.5493665961
-34.5240353015 3.9304254904 9.7450662117
-37.4288979884 1.5393217689 9.9987846557
-38.6525842468 -1.6134021930 11.9595410002
-37.3507979080 -5.0292025010 16.6074583290
-33.7040871828 -3.9648739954 19.2225198103
-28.1895469666 0.6397392701 18.5283893255
-23.1249840485 5.0762912344 17.9697473604
-21.2123699463 7.2796229102 18.6248636691
-21.8841500750 3.7653527617 21.0767944650
-16.8856828534 5.0067402406 25.7174841576
-13.6683429550 6.7168407059 27.5312237932
-11.4891119235 9.5124976514 28.1804823247
-11.6599590242 6.7809064881 30.2624883799
-5.7282939243 8.3756892445 34.5521646753
-2.0972394335 9.3015950596 35.7005179589
-0.5998159360 11.5051031714 35.4193141010
-2.7570401450 12.8849428766 34.3473751287
-7.9566944427 12.1103276877 31.1430744620
-19.4884612899 23.9250527174 25.4040962643
-14.2568715062 22.5296204086 30.5480114808
-11.0577432840 22.9500653307 32.0656069762
-11.6528766366 25.9983226980 30.6014958846
-14.6029899186 27.2734151544 28.0823044039
-19.3265477068 26.7647217746 24.1698721688
-7.6146860770 20.7915256576 33.9460804825
-1.1842764461 20.8196637723 35.9902105571
1.5535708579 23.0269261312 36.6244417004
-1.3298788195 26.6804241504 35.7817092746
-5.1850891171 27.9622999363 34.1671335605
-9.6421109180 27.5616875216 31.4217118936
-21.7483410602 23.5270031340 27.5256992439
-17.3456879601 21.8812951497 31.7977454048
-14.7581583195 20.4125054108 32.7727444930
-12.6919304245 20.5650341034 32.3803758940
-14.3716207939 18.7623296482 33.8544875791
-13.8746374249 14.7628866136 33.1141901672
-9.2809472861 14.0334972858 31.2875895399
-9.5679393467 18.6915163506 33.0691230119
1.2196642228 14.8357807474 35.9221552336
2.3990594620 18.9741820393 36.6183386540
-21.9858942664 20.7304200124 -3.4774681704
-22.7134550536 17.9814098973 0.6590366111
-23.0664411337 21.7778345304 5.7828875034
-22.0132490596 23.8961188099 0.5480985790
-21.2988271928 24.0523259410 -3.1226822516
-21.4492887753 22.4351268720 -4.9883800541
-22.9491341913 26.0430255422 9.8198803483
-22.4450391755 27.4337387261 6.4728574653
-21.8124339884 27.6140234017 3.1819147507
-21.4533963820 25.8481481903 -0.3288604514
