-4.7663161826 8.7402295260 24.7342276740
4.1323196521 6.0284263439 26.2497820444
-18.2548905068 14.5484796444 5.9078115860
-6.1319217512 5.5100782366 16.1423022391
0.1157520541 1.2187042126 15.8528225591
-9.1340342935 6.4889218717 7.6115063209
-3.2080479507 2.2590618914 5.1734871844
-12.5965270346 14.9457013419 -4.1972412088
-7.0170858256 12.8586984588 -7.6476343695
-11.2137910008 10.2135209258 0.6415606318
-5.2256923181 6.5864975326 -2.5521062894
24.7553992300 -19.3131841033 -18.0185692970
23.9539156452 -9.8712304257 -29.5952600923
20.9358204470 -3.0844584281 -29.2371679789
25.7278152580 -19.3043972164 -10.9761822442
24.1373381802 -16.1221865755 -24.7542141128
24.7248223803 -17.2029422092 -3.4518572636
16.9901303967 -15.6618025984 -13.6577085652
15.7344957456 -12.3490975322 -19.6383696320
16.2429125745 -7.3786927185 -24.8943795942
19.5949104653 -17.1470549094 -7.8184379407
14.8010205567 3.5252641138 -24.8395984970
21.3146139788 -13.7080630467 5.8915033115
10.1692808288 -2.3850810393 -20.0553980892
14.5330931606 -14.1600965123 -1.2034260187
11.0671141104 -11.7838918576 -8.6622890790
9.7396138482 -7.8536392786 -14.7615952634
7.4303153720 10.6298880205 -19.6150306433
-0.8894449021 17.3135919920 -15.3931009884
12.0881407575 0.0714413476 23.8230259539
17.0073696844 -7.7865414022 16.1010341910
-1.2773724227 9.0239355334 -11.1027776532
5.3860821894 -4.3478279341 13.0555829511
1.6105104247 -2.8388193939 1.7974803235
-0.1418912553 1.8673972556 -6.0714040638
4.4962463951 3.3400195788 -15.2353502175
6.1337200361 -7.6115396421 -3.2860591856
4.7107254138 -3.1652298012 -10.2619733261
9.7817797317 -9.8387908693 6.6246084608
39.9724844220 16.5083743339 -11.7480056143
42.4068312835 6.2255227723 -16.6110369423
-11.5096007051 29.4196141293 -5.7405444772
-20.4091988461 23.9924925197 14.9718534942
2.9036107814 43.0403412051 -0.5882957814
16.2000130180 36.2394327282 -8.7610451146
26.6493387683 25.9839249279 -15.4281896842
33.3336637264 15.3039848575 -20.5519881546
37.9399939225 4.6878281780 -24.4723473989
13.5034363112 39.0282274139 19.4492040950
28.1439667648 31.6110204064 13.5672559601
37.7781306698 21.5687976925 5.2790532348
42.6446471155 11.9280867137 -2.5889150771
43.9103445452 2.7924219356 -9.9659876553
27.5230775616 0.0182675502 19.1453008097
20.2591734437 9.5984007313 28.0173282720
33.7654274661 -13.3268108842 -2.0712996697
31.4554865984 -7.7609524973 8.4008227019
-15.2306654323 24.0891959947 24.6268078236
-4.3992349541 23.3252906911 30.4002363917
5.7728545922 24.7632212587 32.1769429182
-17.7437443945 21.7415289332 27.4176507653
-12.4349887454 16.7418585418 30.7385102567
-3.7466386748 15.7068903987 30.7189066700
8.5684311368 14.8728600891 31.6805993190
-16.3973461061 27.5262891248 -0.9099229837
-19.6462450254 24.9550488326 5.8225207007
5.9679559758 28.0823913952 -15.7289921249
16.0237780284 18.9295728443 -20.9164182958
23.8533747428 9.7928816300 -25.8073649665
30.0100049054 0.7928074373 -30.0140586327
-4.8565385258 35.7581938952 -5.7927473845
34.7000944913 -18.1202821522 -11.5829683302
33.4940146138 -8.4819392526 -31.3373110627
33.4870776993 -20.5290772563 -20.0014286086
44.2051847581 -2.9004204539 -17.5136220690
41.2753582272 -5.8437446262 -26.2813366835
-23.3552704328 21.7047448086 17.7691721167
-24.5268605779 17.4267956592 13.7221524596
-22.5221910391 12.0188396754 17.6416884294
-16.1385385029 11.2519640756 24.8371207749
9.3893798718 43.8238060581 7.8106362868
23.7989093984 36.7221242500 1.9167259989
34.0969154891 26.7592402532 -5.4312946120
26.7566541432 21.3598078276 23.7705852174
36.1153378841 11.5661058885 14.5118569716
40.1306569230 2.5584273764 4.8368541287
41.5247867062 -5.1872735075 -4.5916179928
42.5679021344 -11.7260390711 -13.9457865909
40.1461718796 -15.6159193519 -23.1125629610
33.2690229974 -17.0026502986 -27.3419862213
12.5930983947 30.8632346104 29.2491118107
-9.5083132180 24.9287511035 -10.6411563403
-11.5782576354 20.9489606355 -8.6602272355
-7.8680473781 16.6526041536 -9.6202502966
-5.0050324871 19.7179069673 -13.5200209198
-15.4012377090 24.6794361718 -4.2161917737
-16.3960124937 21.0109193633 -2.5015942275
-13.3532664388 17.8078089554 -5.4925988895
-18.9381079445 22.8015100963 3.3952497752
-17.8158813949 17.4054984897 3.4046560133
-15.1646709153 16.6567802543 -2.1221516032
-20.5776427870 11.4436174641 14.8490476999
-14.7796761876 9.1000796070 15.7359760383
-12.7600175046 8.2489574225 9.4235024174
-18.1472007062 11.9069265309 8.6537305436
-14.1459756618 10.5923195256 22.7251305586
-8.3957973373 9.2450121600 23.0289172859
-9.1120996580 7.2297727001 17.1219827716
-4.5853718909 11.8431377762 28.3525352380
-0.6473968973 7.6533511572 25.6681033737
-4.9984711391 6.5964766222 20.5507623656
6.2699091362 10.2471319136 29.7439990345
8.6710231263 3.5727960522 25.8478902731
2.1566175168 2.8238534168 21.4763831390
-14.6835578205 12.1179536639 2.8376247469
-21.6025475013 16.6827576521 9.6852823821
-2.9968142332 3.5919680327 15.9930971236
-7.6740525777 5.4751574309 11.7290065333
2.9701120266 -1.4882645963 15.0488261870
-1.7570726877 1.1127611722 10.1711298746
-6.0262300468 4.5708916600 6.3082699736
-10.3413439930 8.1925489295 3.8936223034
-0.6654096494 -0.2819358849 3.7865259357
-4.3177965118 4.2159807346 0.9433345033
-11.9075000982 12.4679138755 -2.0822470139
-9.8010188002 13.9099415634 -5.9521608316
-6.0871979305 9.4362369080 -5.3814904021
-4.1988563841 11.3355346147 -9.3494776775
-8.0251791790 8.5152345858 -1.0232965405
-2.6560753173 4.3622499456 -4.1796117161
29.1361807007 -20.4798040524 -19.4527070018
24.2553534984 -18.1285229104 -21.3889933324
20.6336101465 -17.5516006749 -15.9474782238
25.3596955741 -19.6875832301 -14.5836715160
28.6857404212 -9.6616992021 -31.2213115492
23.0736954317 -6.3144790381 -30.2132542136
19.7458872583 -9.1128939401 -27.2417875987
24.1529982515 -13.3296340900 -27.6596522916
25.2815432480 -1.3219635653 -30.5805142976
18.0294074589 0.1176696221 -27.2504118599
17.7326921735 -4.9149931077 -27.0017653520
29.8614851092 -19.4563175407 -11.4329350694
22.3777941545 -18.3206700110 -9.8966241876
25.6318272952 -18.4102623875 -7.2849519177
28.9395756445 -17.1006563447 -26.6862772235
19.5278582047 -14.4005367246 -22.2003905725
21.6090521687 -17.3244853882 -5.1998589420
23.2352643243 -15.6626270007 0.8811348824
28.8856786410 -16.0726253677 -2.4166451876
16.1223700091 -14.2361176959 -16.5531102748
13.8212369085 -13.7338581648 -11.2232058045
18.1841552771 -16.6263966525 -10.7945341754
15.7735449298 -10.0293764267 -22.5387480094
12.5690912036 -10.1312456863 -17.1576106652
13.1253663026 -5.0386649240 -22.4952131106
17.0489501615 -15.7889973550 -4.8703215750
11.2760467552 7.0680523891 -22.2322749547
11.7871309261 0.6605103994 -22.5246821428
18.9548688945 6.4875401418 -26.1932744269
25.9944386290 -11.5919751957 7.9593717703
17.5150638388 -14.4195588043 2.6548394005
19.1775029188 -11.1345642125 11.1364231092
7.3091665734 0.4441118492 -17.6175548681
9.6202325322 -5.3292528174 -17.4888812886
12.3884087449 -13.2058836175 -5.1316478975
12.0895003881 -12.1916021205 2.7704062892
10.2744201575 -9.9838048731 -11.8346453615
8.5577094420 -9.7618551841 -6.0023722689
7.1455270029 -5.5332342151 -12.4609515696
10.9012791185 14.4141679641 -21.0163690723
3.3393806522 14.0999626030 -17.2722267351
5.4251962807 7.1184099689 -17.4548972990
1.2346554772 22.1570836968 -16.5974130897
-1.4102322813 13.1845730442 -13.1747067739
16.1237628070 4.4855773421 26.9646199897
14.7079419916 -3.9262262325 20.4398712908
8.4374945872 -3.0539820288 19.0004728257
12.9994505146 -9.4682860884 11.8463450107
21.8786009541 -4.6386932184 18.7086083035
-0.7936359305 5.1198804344 -8.8918203553
1.6530878310 6.2350151588 -13.0305453749
7.5741709150 -7.1861144131 10.1272903251
3.0853172733 -4.1298109621 7.0065463256
3.8134737123 -5.3065111502 -0.6362044558
0.6457410237 -0.7662611349 -2.5283286674
2.3170089318 -0.7042995728 -8.1364003287
4.3488695284 -0.2557194645 -12.8995503189
5.3504178120 -5.5497256201 -7.1198293035
7.4709692975 -9.1349269970 1.3164455330
41.8678305779 14.9670516644 -7.0266126854
41.3880183609 11.1737657377 -14.3798616220
37.0870139040 16.5842868621 -16.3899080783
37.6812529228 21.8247398491 -8.7692415646
43.5026075081 5.3741510232 -12.9986859998
43.3003333612 1.6058049917 -17.8663122961
40.5672592281 5.8525872458 -20.5578634939
-8.6028067817 31.5031228558 -6.6518794016
-13.9306791639 28.4342134885 -3.7170961719
-20.2713773470 23.8902021764 9.9415974738
-21.2267946496 22.5814742079 15.4554950888
-19.0097139339 24.2922490158 20.0868404221
6.3053631612 44.2029776671 3.2689006223
9.7176270556 40.3549768701 -4.8641225785
-0.8279151630 40.1885018713 -3.6624078544
21.9603105946 31.2325785072 -12.2761943585
11.4890923738 33.3436394039 -13.0033830219
20.2116087272 37.1572613316 -3.5985388747
30.3756463117 20.6512179693 -18.1910058604
21.6672032359 23.1576717025 -19.0691157951
30.7978416351 27.1952826281 -10.6486314990
35.7792431009 9.9760450327 -22.6219797337
28.8523857211 12.9297273502 -23.8236481861
39.8169451718 -0.5837047848 -25.8130609265
34.4251080571 2.9331358757 -27.8116822730
13.8400932914 35.1509220965 25.2314649550
21.5689377023 36.2633603091 17.2297276470
11.8943102824 42.0419316686 13.2055026985
33.4513491049 26.2915394524 9.2869285377
26.5904477742 34.9050697928 7.6723744285
28.2426500156 27.0045910560 19.1150042078
40.9063952382 16.9720179049 1.3997608285
36.4640345301 24.8268839836 -0.0495548250
37.7579474768 17.0908211350 10.2465657110
43.4694402858 6.9860947350 -6.4526644362
42.1245680185 7.6691724825 1.4161091785
44.1515497652 -0.5262396431 -13.4685246620
43.3455507007 -0.9396544756 -7.1848239418
24.4339114361 4.7506875716 24.0176734320
29.7780251750 -4.2209430109 13.8129851179
32.6855609031 5.6379542535 17.6279322551
14.8926194684 13.4069785378 30.7233362826
23.9117486674 15.3418476574 26.9747508152
32.7393867074 -10.7327723571 3.0685682958
34.4569609715 -15.7531479800 -6.9667399690
38.3148353610 -9.4766101049 -2.7194491992
36.5493893772 -2.8024816532 7.2939079104
-15.9466095175 22.4403824229 26.1263201831
-9.9851311197 23.5814019195 28.1903305312
-3.4600027842 19.7226119212 31.4024656685
0.9551641060 23.6215181324 31.6657600773
9.8703811507 27.0192978683 31.5191306023
9.1031099427 19.8046566054 32.3415745904
-21.3822919071 22.2512197817 22.7819811362
-14.0539394142 19.9372493975 30.4596630618
-13.1305228940 13.4035365989 28.6148450742
-8.8002541770 16.2220794726 30.1943008193
2.1417762479 15.2807309336 31.4480977040
-18.4618043218 26.3929781736 2.3484658600
11.3051014023 23.5021072672 -18.4381073838
0.3692236982 32.2427073828 -11.8397240772
20.1732093587 14.3754690103 -23.3587668418
27.1287389408 5.2487983370 -28.0986060314
32.2245153029 -3.7429881444 -31.2114572699
34.3741450217 -19.9082087683 -15.9260893684
39.2715961220 -15.4425630163 -12.2092417256
37.8567296801 -7.0020295801 -29.6961829312
33.7941008783 -13.0623976622 -30.0941627665
32.8545675151 -19.6242478398 -23.7936020524
37.3254390837 -18.9947450040 -20.8218998485
44.2411310712 -7.4045921819 -16.0245708475
43.4426328963 -4.6336448688 -21.9229269157
41.5970645254 -10.9464375326 -25.4384715886
-24.1094021255 20.1007764317 14.0709925561
-24.1341332930 14.5200260498 15.3144024450
-19.7527513341 10.7080378324 20.7895935015
17.1621214214 41.0719999474 5.2693297426
29.3972119833 31.6419595562 -1.8171204871
20.0402286742 26.2783600455 27.3910433300
32.1993147141 16.3380095488 19.2291772832
38.6722996554 6.9976076045 9.7104322849
40.9368940808 -1.5606199938 0.0313317119
42.0705560033 -8.5251398871 -9.1972375084
42.1777815380 -14.2553392062 -18.6858184276
37.0243232779 -16.2843465507 -26.2957940473
-7.0767160339 22.7049142775 -12.7607562366
-10.5421056658 22.7740035586 -10.0115644322
-9.7171686697 18.8966328411 -9.4904470652
-6.6128034798 18.1628650179 -11.6128582348
-13.4974560659 22.9282971762 -6.8841996162
-16.0917544508 22.9340105736 -3.3741182415
-14.8975137962 19.6082919189 -4.4187895194
-12.5595900554 19.2941014793 -7.0447509856
-17.7401452583 22.0883623158 0.1577685119
-18.6891848122 20.2976894757 3.8693465603
-16.3970852438 17.0084865058 0.3244694540
-16.1130073217 18.9152420329 -2.0173768967
-19.6821485877 11.7223086463 11.7132602690
-17.8648638742 10.1911634985 15.2248519165
-13.9600377858 8.6001111261 12.4579966176
-15.5627576047 9.9317817981 8.8756568141
-14.8658189627 9.7445605707 19.2068682169
-11.0189225273 10.2252389661 23.2519803687
-9.2189964994 8.2442642219 20.0037928665
-11.7461942067 8.1160869753 16.3436948987
-6.8593482771 10.4396970544 25.9716188785
-2.5414996381 9.8019956053 27.1939419456
-3.0217455640 6.9461424185 23.1028122176
-6.4135651173 8.0011580477 22.1924471116
2.4395835238 8.7703579129 27.9830857796
7.8241864195 7.0976054579 28.1219569415
5.2109215749 3.0281132159 23.9671956802
1.0150335917 5.3124962189 23.7981911274
-20.1704372171 14.1981587128 8.8776951148
-16.3591849513 12.0428476414 5.7014997405
-16.4830651280 14.6007186485 2.9058494296
-19.5937738710 17.4426498332 6.7546403326
-6.9156724659 6.6629512431 18.4394865294
-3.8891923524 5.0961922608 18.4283706738
-5.3384833489 4.3925031111 13.6216231389
-8.4684221584 6.2814602731 14.4048803433
2.7430207814 0.4831841415 18.5609139160
0.5282753830 -0.2990344376 12.5676713719
-2.3166324859 2.2152802920 13.2285961431
-0.5365997558 3.0515982721 18.6950292366
-11.5379483513 8.1260044045 6.5992598703
-10.1157671853 6.7879286893 10.3494671155
-6.8536994937 4.9083928892 9.0421502409
-8.1471154976 6.4051187193 4.9165686505
-3.9177459732 2.7542087363 8.0736105356
-1.2184757957 0.3005417297 6.9930099595
-2.4890463449 1.9141656992 2.2898502101
-5.1729998378 4.3555098071 3.5910185286
-13.7032576680 14.5203874937 -2.2413420016
-10.7733690285 12.9799366504 -4.0965493119
-11.6586713792 15.9107387009 -5.9314446397
-14.1144975951 16.8397558313 -3.9681841450
-6.0063641726 14.1324133281 -9.5194361995
-8.8888421416 15.1822473574 -7.7696875485
-7.9152472022 11.7516331711 -5.7361871794
-5.1996887683 10.3178188896 -7.4151012534
-13.2148347475 12.2381030536 0.2152489115
-12.5640004390 10.0272017804 3.1967679100
-9.1592240555 8.3318834185 1.3384358564
-9.9648907219 10.4794021014 -1.6577366752
-6.1558501019 6.4427760204 -0.1720760874
-3.4819394526 4.1872687137 -1.6416125596
-4.3498510433 6.9701094708 -4.8664555030
-7.0031663387 8.8360064792 -3.2455241804
27.1840994033 -20.2157077914 -17.0170441089
26.7047038379 -19.5550796259 -20.6403894297
22.2785868101 -17.9481212571 -18.6069824302
23.0426545511 -18.8247445966 -15.4587883635
26.5195778581 -11.8549141379 -29.7813864067
25.8476575084 -7.8825170098 -30.9944739800
21.6728056020 -8.0724502670 -29.0243301795
21.7899525822 -11.2050358930 -27.5849303359
24.2139431079 -4.0309981663 -30.7461761676
21.6247657909 -0.4630053209 -29.1986682230
17.7377192546 -2.5504349257 -27.2186093192
20.3842700724 -5.2682364819 -28.8556236785
27.6674581850 -18.9711158266 -9.2476610558
27.6009205464 -19.9559859173 -13.2319468145
23.7243504544 -19.0046157737 -12.1964331183
24.1493045554 -18.6315587708 -8.9515541014
26.5255013342 -17.9172765674 -24.1657232282
26.6094245203 -15.3198933806 -27.3775861086
21.7548728288 -14.1129743380 -25.0609239174
21.8281339858 -16.3721916953 -21.8692049107
27.1710582803 -17.5946603365 -5.0529695748
23.6925700155 -17.8641801238 -5.8578377684
22.2496484185 -16.7156570956 -2.3868173406
26.0661851513 -15.9603702046 -0.5506187080
18.2727742736 -16.0071135317 -16.2606770049
14.8705557917 -13.9943914971 -13.9046854325
15.9316882006 -15.3042697213 -11.0042637490
19.2857269789 -17.0877897581 -13.3967397665
17.6536345300 -14.3996361844 -19.3223621535
17.5113290462 -12.2853554069 -22.4388916729
14.0536870247 -10.1369589922 -19.8575623800
14.2418302963 -12.2698259378 -16.8781860060
18.3136712965 -7.0745644666 -26.9310929058
15.2908027045 -4.9321764026 -24.8544665129
14.2914576330 -7.6125255852 -22.5143149107
17.6915178236 -9.7060442851 -25.0412628780
20.3721197694 -17.6434653246 -10.4473016195
17.3942185508 -16.2034574227 -7.9827792056
19.3971725659 -16.6819281616 -4.9634537423
21.5851023935 -17.7792562420 -7.6367316587
14.9487977691 6.8371878936 -24.3933587231
11.5066950711 3.7726323263 -22.4753842181
14.7029215651 0.4821882974 -24.9678696974
18.4724737339 3.1245530050 -26.9469688427
22.5408339715 -11.5477017242 9.8099726607
24.4744136931 -14.0021424723 4.4427811596
20.3741357017 -15.1643273215 1.9474635156
18.2032190735 -13.1117749987 6.8975840945
12.2946992607 -2.2877143130 -22.5116112648
9.3434296407 0.6372538582 -20.0657009525
8.3723800943 -2.5750563628 -17.5766554688
11.2448978372 -5.1792369785 -20.0181824766
17.1138174444 -15.2520810078 -1.3246045264
14.6584397721 -14.6202568739 -4.9048842360
12.0887878321 -12.8270256684 -1.4174208173
14.7244316401 -13.4236567714 2.9472312414
12.9828134324 -13.4807161224 -8.3510388962
11.9510368283 -11.9545848510 -11.5059759364
9.3597656881 -9.8862328276 -9.0522532819
10.3588169557 -11.5851200943 -5.5108870743
11.3164684438 -10.0722389627 -14.4978827399
11.0309700386 -7.8278255700 -17.3575029842
8.2551420419 -5.4496469731 -14.9687465223
8.6795676117 -7.8436892157 -12.1652653941
11.0447925721 10.5829105163 -21.7473433692
6.7911895123 14.2876724044 -19.2462248681
4.4181691131 10.5622894744 -17.3515503894
8.0759332351 7.1807424100 -19.8659761397
2.2583130004 17.8954385937 -17.1550578715
-2.5876502404 21.1651661445 -15.1660811743
-3.1412222450 16.4722355230 -13.4524833185
0.6215376385 13.7690169644 -15.2310527018
12.3240440121 4.1336914418 26.8725308223
15.5803055393 0.0122756094 24.0471888314
11.4836344919 -3.4943122907 20.0746583307
8.7631563501 0.0287265045 22.7853348411
20.4340319181 -8.3185496057 15.1331580677
15.9922181402 -10.3987841869 11.8295795634
13.7989389924 -7.0940820151 16.3037364910
18.1636402077 -4.3493237166 20.0086935512
-2.9690623865 12.3228334868 -11.2389082383
-2.4604066617 8.2786374757 -9.1479768661
0.3232047566 5.6487373087 -10.9836390391
0.1795354667 9.7359233499 -13.0561983055
5.5935866772 -2.4108011221 17.2717613941
7.9794761074 -5.4358296819 14.6780459894
5.2070202691 -5.7712455733 8.6662855191
3.0188302556 -3.0141962621 11.0878875671
1.1669309346 -2.2950215066 5.3610997655
3.3315518496 -4.8825799012 3.0739501716
2.2195431709 -3.1144706972 -1.6132435552
-0.0593504100 -0.6313538556 0.5840767113
-0.9825663247 1.7342190886 -3.3853077267
1.4386214658 -0.7741544955 -5.4585208636
0.7929470432 2.0820415590 -8.5465774049
-1.7753438753 4.6946832005 -6.6248277995
6.3623304331 3.7017546543 -17.5743712958
3.3102591020 6.7748946053 -15.1693073591
3.0261078079 2.8572286755 -13.0050830646
5.6598064341 0.1170534871 -15.2231698285
6.9086869158 -7.7417430560 -6.5519253154
4.5186848628 -5.4896293396 -4.0470374165
5.5387605035 -7.3199616202 0.3629244943
7.8967998643 -9.5469087687 -2.5617203959
6.2113722947 -5.5682924211 -9.8867194936
5.7010511999 -3.0257258301 -12.7107444084
3.2706496920 -0.5361921820 -10.5793095561
3.8194439400 -3.2223180449 -7.6568656762
9.6654160044 -10.7543885034 2.1740559272
7.3742654960 -8.3885460599 5.6078752038
10.1855870530 -8.4011489832 11.2349642167
12.4020826839 -11.1227960171 7.2628750629
40.1382260206 18.6025750168 -7.7991862508
41.7323438908 13.2509297315 -10.8718322270
39.5474746842 14.0210777305 -15.3397656516
37.5447537484 19.4197747331 -12.7726043450
42.6856021901 8.2401344914 -13.5984897029
43.3316717614 3.9279467592 -15.6421487544
42.1727181224 3.6295063121 -19.3203223387
40.9714014315 8.7282162824 -17.5982390345
-13.7156757364 30.9446890356 -1.7604195422
-11.6373745823 32.5583084146 -2.6657411739
-8.7156010322 27.7546892495 -9.6983831924
-11.8542117846 26.8040518304 -7.4148285073
-19.7983083271 24.9022626677 17.4488571162
-20.4131732628 24.6972531716 12.7734141620
-20.6269171798 22.8686387396 12.1082569197
-20.2841304440 23.5066363555 17.8395651477
-2.2492244972 42.7382903053 0.3014500954
1.0444164471 44.9276636231 3.1802596932
8.1904448086 42.5412576651 -0.6634154803
4.3869423984 40.7076296664 -4.6730474699
21.3041877345 34.5084256384 -8.0483998203
16.8915539209 32.6053330956 -12.8298005972
10.8574405275 37.3341003436 -9.0909717785
15.0402862551 39.0860857489 -4.4224504387
30.7959932610 24.1451607414 -14.6712348922
26.2491468589 22.1387027609 -18.7686283930
22.0582644643 27.3916414881 -16.0157209595
26.6000873441 29.4131504877 -11.5009508565
36.4584083746 13.4061690773 -19.6437044786
32.5634237473 11.6153162671 -23.3906407475
29.6784487157 16.8674671663 -21.2021751010
34.0100773504 18.7893078422 -17.3818897791
40.2164752669 2.6830983733 -23.3010292907
37.3752415549 1.3160282568 -27.0097716860
35.1243970898 6.4359771579 -25.3689644388
38.4550011247 8.0319581353 -21.6556752014
8.3692661400 41.4346123130 16.9893890451
9.5834377479 38.2873046088 23.2850159052
17.9489423728 35.8219045141 21.4925340743
17.0763074026 39.5996301015 15.3833073419
31.2094693575 26.8310171984 14.2333107297
30.3097615413 30.7368653311 8.5691512673
24.4515329762 35.9527813453 12.5387878105
25.2489287051 31.9423290084 18.4432747982
39.6021501346 17.1900864430 5.7845035206
39.0811501861 21.0957311143 0.7958057448
35.1684599394 25.6452071170 4.5264571748
35.9930073468 21.7954435239 9.8924121407
43.0223282810 7.4807844734 -2.6365538047
42.9390228917 11.0269341476 -6.5728037946
41.6374941285 16.2308763777 -2.9047165108
41.8797478088 12.4163476426 1.6075813234
43.9336585680 -0.7657200891 -10.4886018624
43.9376517987 2.5093804695 -12.8230000612
43.5991890669 6.2939639189 -9.9219767250
43.5801282971 2.9950319177 -6.6423839588
28.7236707729 5.0873249099 21.1364053748
23.3521751607 -0.1944780172 21.6793896457
25.8385837820 -4.6078368302 16.5668010072
31.5229587715 0.5115297652 15.9952284645
19.2245327070 14.6959493446 29.5567279326
15.9973431702 9.0491968130 29.1486734449
20.1564615057 4.6198657579 26.0124237951
24.7123248302 9.9780715314 25.7510101883
35.7260047766 -10.1035066208 0.2578054476
30.7668290153 -13.7515405132 0.3902368464
31.7175528489 -15.9592770832 -4.5990729235
36.5198617014 -12.8525022731 -4.7090272181
33.4230747486 -3.5573732650 10.6783575863
27.8312372971 -8.3073038440 11.1226351982
29.4595484983 -11.2676832003 5.6666391384
34.7266322389 -7.0667810480 5.4040392899
-17.1995833700 25.1010053912 21.8887192751
-17.6722676449 23.4951061774 23.0566026507
-12.8540213601 22.6458796120 27.4884612051
-12.7242197313 25.0563891063 25.6086212465
-7.6796465312 24.9738039748 28.4556067746
-6.8876355657 21.7622083409 30.3054550315
-0.7612674372 21.5143121409 31.6461254096
-2.8708763351 25.2099109043 30.4149985256
10.6758086204 22.9079763795 32.0315944708
4.9450104795 28.3454396190 31.9044244314
1.3994948465 26.2726415481 31.6103980876
5.0254324095 21.8626181449 32.3205322743
-18.8307520475 22.4393075899 24.4413093287
-20.6750295801 21.9336157688 26.0428307332
-17.0127720234 20.9773871782 29.7099886907
-14.4295284010 21.2077092888 28.7985711015
-11.2446929627 18.3703647536 30.6647863293
-14.4377575766 18.6130858519 31.3504149003
-13.8872429033 15.3193400813 30.5662038512
-10.8538768717 14.5923039848 29.3797179572
-6.4697722343 18.0165609112 30.8747920106
-6.6887763487 13.9375006109 29.2910086946
-1.5432222234 13.4563956461 30.1594202079
-0.3996142810 17.5385531243 31.6773097330
10.5821437821 11.8345025493 30.7017157232
12.6263112852 17.1435124396 31.7688386530
5.9422635272 17.3752575341 32.1861341564
4.3469958517 12.9206409067 30.8145122670
-14.5761560012 26.3876423810 -4.4629617718
-17.1114897239 25.8753248076 -0.9626139247
-17.8840862715 27.9865247265 2.5085745207
-15.7994544197 29.5561616328 0.0238037941
-18.8288054278 24.7716316674 2.7125932258
-19.8737815672 23.2254522274 6.8387926987
-20.1371646182 25.1655515366 8.6781929413
-19.3831916182 26.4159632648 5.3823857238
11.5442951071 28.5213559517 -16.1859734683
6.0484980525 22.9846732066 -17.6551600803
0.5305654326 27.0756323615 -14.9372779023
5.8659233767 33.1596357712 -12.7082853045
20.9436993463 18.7297601135 -21.4413480143
15.4900017318 14.5137295237 -22.4156042002
11.0169603319 18.7421521998 -19.9626196316
16.6192995892 23.5945807502 -18.9536205980
27.9850500455 8.9979475728 -26.1275183053
23.0866730268 5.9921326493 -27.4388906513
19.5046049114 10.2578542501 -24.9554659837
24.6852986720 13.8599930911 -23.8268916459
33.4908272184 -0.4675195046 -29.8244095451
28.8559023843 -2.4160949057 -31.2154671414
26.2511071691 1.7932804353 -29.6379449520
30.9571056845 4.2357556348 -28.2000608865
-8.9874200040 35.3896076772 -2.6469593857
-5.7057205953 39.2437132954 -1.6673267056
0.0463785269 36.7417222740 -7.8379860994
-4.5992660485 31.3013001964 -9.9401399676
37.0131762921 -15.5969296371 -9.4794355194
32.1973875788 -18.0291546985 -9.2778095625
32.1697170194 -19.7714327354 -13.6594447146
36.9979549087 -18.1226383996 -14.0230325510
30.6022051080 -6.8675457081 -31.7251056567
35.2508277812 -5.2859820525 -30.7035414899
36.0153983124 -10.1436238308 -30.4420738843
31.4012306891 -11.4013015234 -30.9169139222
31.6756511118 -20.6683774258 -17.7944799292
31.0637225162 -20.3479856174 -21.7214874758
34.8953172458 -19.8318889118 -22.0945089571
36.1532423311 -19.7182344395 -18.2961460011
43.9647087939 0.1024213970 -15.9819663862
44.2937141482 -3.8627961605 -14.6382010617
44.2812429056 -6.2686739315 -19.1856734682
43.4209533373 -1.3721460434 -19.9065373657
40.0023047291 -8.9351204999 -27.9717364841
39.1234374629 -3.8251796788 -28.0234072352
41.8620725217 -2.6438727088 -24.1472595350
42.9273622840 -7.8670495637 -23.8571031550
-22.3279446753 21.4214333740 13.7606875106
-25.3550978233 20.7453236087 17.3649906886
-23.6972784213 21.8006289609 21.4456095173
-21.5837893618 22.4727563890 19.1718188487
-25.9268981642 18.7826360832 15.5976370495
-22.7561157529 18.8807016145 11.3024898719
-23.2601479312 15.6177143222 12.4769344384
-25.5320909240 16.1571410733 16.3002277094
-22.6001415175 12.8837147306 14.8105516028
-20.5309157527 11.0462686622 17.9018524177
-21.7806389539 11.1563370322 20.2308195402
-24.1310886846 13.3430515855 17.9894580847
-13.2046677175 11.7714373290 25.9842936551
-15.5084895050 12.3722637857 27.6582130105
-18.6338241662 10.7547232315 23.6385993890
-17.1756676942 10.6293307075 21.7667140643
3.9568466916 45.3028180444 6.7825862110
6.3906333388 43.9267789516 11.2374462810
14.8807861930 41.9981168854 9.3785816647
11.7343818180 42.9007113610 4.0402811588
22.1985896526 38.4236993232 6.5586388407
28.1647961459 33.3805576342 2.8521130796
25.0642680480 34.6744868871 -2.6829471678
18.8523065017 39.3515718718 0.8776564185
33.2024404601 28.3197218040 -0.9514641256
37.3253509059 23.6229364110 -4.4840560220
34.5203565053 24.6506821621 -9.7526569707
30.3172653578 29.6721276818 -6.3168209408
24.4940027616 26.7490164935 23.6042589424
22.1690969089 20.8452072048 27.6214773474
28.3614711215 15.8502487972 23.4074772011
30.5805706647 21.7279500634 19.3625922313
36.0103582890 6.3216936763 13.7547063299
38.6469905004 12.1141997385 10.2160311127
35.3186403432 16.7748269365 14.7660973011
32.9239722761 10.9575101566 18.6913827496
37.9197728210 1.9444424784 8.7244956403
39.0250206044 -2.1089131250 3.7197120021
41.7658960249 2.9446261048 0.8821213083
40.6924004183 7.4891160909 5.5744408909
40.4035682473 -8.9493500426 -5.8858160030
42.8374746649 -4.7871941597 -8.0397744939
42.3627902179 -1.1723034026 -3.6414507681
39.7725982609 -5.7094196999 -1.1488649082
40.9535767968 -12.1422476923 -10.6111736011
41.0522562679 -15.0791298227 -15.3053415048
43.6143702020 -10.9469607278 -17.4148025130
43.4034287230 -8.0981404340 -12.6193909528
39.4710317613 -13.8281678590 -26.2681654920
42.3642633187 -12.8192551068 -22.1885469425
39.9232303601 -17.0285337705 -19.8091753011
37.7051775660 -17.6900600224 -23.5875346855
30.9898927057 -18.5839729911 -25.4671782561
31.3742937613 -15.4663310129 -28.7373436791
35.6765335690 -14.7144153380 -28.5462896287
34.7624900524 -18.1782710541 -25.4787498499
17.3080771252 31.1320512651 26.5507013190
9.3910437172 34.7717628303 28.1729805233
7.6953535066 31.2872608897 30.8987139113
15.0587339112 26.1154243369 30.1163810949
-8.9283561340 22.7434983815 -11.4103084018
-10.0994591932 20.8155337355 -10.0209099083
-8.2043693180 18.6105185862 -10.5895924626
-6.8455553309 20.3172684228 -12.4489155671
-14.8763360570 22.9935913420 -5.1545151446
-15.4970833162 21.2288968954 -4.0615563197
-13.8285188905 19.4687449220 -5.7339189603
-13.0174600775 21.1063939583 -7.1854544936
-18.2347200169 21.2789201287 1.9487684907
-17.5948284300 18.6109677883 1.9718744227
-16.3072641987 18.0310271584 -0.8898371066
-16.9721605055 20.4511075782 -1.0055742333
-18.9304660018 10.8298773289 13.3972873028
-15.9861310718 9.4554245858 13.8057783211
-14.8500293085 9.1642271502 10.6222427632
-17.6916686355 10.8672869175 10.2430407908
-13.0158285725 9.8973819793 21.2595751098
-10.1324601335 9.1800433954 21.5227119433
-10.4967588470 8.1373378885 18.2614664045
-13.3665522734 8.9896613449 17.7363371204
-4.7352778834 10.1798134024 26.6558941075
-2.7898710494 8.2612644421 25.2550419596
-4.8088463337 7.5409695647 22.6870703146
-6.6210872012 9.0832463564 24.0456558582
5.1618701076 8.0547249175 28.1797815375
6.4993326667 4.9258423311 26.2210858172
3.1431728064 4.2556444423 23.9998756758
1.7049853830 6.9233186053 26.0324740870
-18.3089404882 13.1577194502 7.2210891274
-16.4763151049 13.3031997445 4.2665282368
-18.0632238663 16.0078649014 4.6761420340
-19.9730259256 15.7375748619 7.7353628473
-5.4708360810 5.9211536258 18.3615009120
-4.5734202090 4.5964646633 16.0189375955
-6.8875230631 5.3583742048 13.9165189165
-7.6509617154 6.3709427505 16.4628378962
1.5904941880 -0.1044641095 15.5746934718
-0.8610520825 0.9917345863 12.9659361361
-1.4236025102 2.4584393033 15.9649281282
1.1345052635 1.8204672958 18.7250825263
-10.8657450918 7.3697729910 8.4334507975
-8.4280234456 5.8695144016 9.6244530251
-7.5319125525 5.5685555427 6.9166729018
-9.7769219162 7.2807779428 5.6983848512
-2.5337755077 1.5549499411 7.5746693206
-1.9009514535 1.0027480221 4.5386331334
-3.7970690075 3.1658187594 2.9641027760
-4.5840853158 3.4580747693 5.7452224579
-12.2486330257 13.6713847067 -3.2269087540
-11.2102951397 14.3901199487 -5.0969162107
-12.9536479603 16.3123375785 -4.9663936172
-13.9211866996 15.6648129600 -3.2151014659
-7.4643833750 14.7248587214 -8.6520519244
-8.4073414242 13.4169802331 -6.8011254303
-6.5501050573 11.0853709655 -6.5698865883
-5.6183044503 12.1824087390 -8.4957873550
-12.9230710979 11.1088024407 1.6468006853
-10.8121789575 9.1716042772 2.2053736053
-9.5748403946 9.3697526248 -0.2309441891
-11.5707595840 11.3137694107 -0.7902553364
-4.7874634949 5.3502478871 -0.8923527637
-3.9249058839 5.5115055091 -3.3405389545
-5.6523751672 7.9425356650 -4.0454066450
-6.5839976260 7.5875952301 -1.7884080848
26.9294094597 -20.0039493953 -18.8449948644
24.4694318554 -18.8233188934 -19.7028029367
22.6460322991 -18.4736490202 -17.0329389103
25.0673245525 -19.6004550046 -16.3182504002
26.2799697563 -9.8928579636 -30.5537016106
23.6439207378 -8.0699513147 -30.0944114045
21.7661360406 -9.6159769209 -28.4549905311
24.1056774951 -11.6519940343 -28.7711847648
23.0141333354 -2.2305051567 -30.0976512146
19.5449011848 -1.4988808153 -28.3289612038
19.1424041278 -3.9470490538 -28.1525267627
22.1415996752 -4.6711553625 -29.8963824530
27.6911224313 -19.5333079884 -11.2654635043
25.5864598081 -19.5768684628 -12.7968499996
23.9659257880 -18.8693740209 -10.5411145176
25.7637188339 -18.9061836619 -9.1401311498
26.5617382448 -16.7327514388 -25.8417771273
24.1494291625 -14.8214780160 -26.2981732534
21.7610238200 -15.3258034994 -23.5112324926
24.1585624130 -17.2263179308 -23.0953307264
25.2701628167 -17.8447644159 -5.4067275854
23.0263310688 -17.3379070196 -4.2215538108
24.0422691417 -16.4781405236 -1.3665628708
26.6869415088 -16.8138431988 -2.8517921239
16.5036524035 -15.0068984467 -15.0860089048
15.3488913849 -14.7008880067 -12.4575292136
17.5580835232 -16.2014116640 -12.2375060110
18.7499248950 -16.6131579730 -14.8217457030
17.5324043440 -13.4032118148 -20.9093724389
15.7060894156 -11.2412310574 -21.1406420507
14.0934877253 -11.2533633956 -18.3877126362
15.8695441570 -13.3487722407 -18.0899074457
16.8057790013 -6.0850045477 -25.9428566545
14.6529426446 -6.2634236614 -23.7027081328
15.9256278944 -8.7176664690 -23.7748472843
17.9227389171 -8.3478329312 -26.0644846933
18.8445157993 -16.9373065254 -9.2981541406
18.3086996924 -16.4967512380 -6.4453830315
20.4908860896 -17.2685045323 -6.4255467654
20.9360860630 -17.7508107327 -8.9789349329
13.0781002709 5.2870623486 -23.5498742086
13.1294430942 2.1039292348 -23.7440728874
16.4497073918 1.7972528127 -26.0802163229
16.7575001082 4.9709680816 -25.6948355416
23.5396799667 -12.8543305905 7.1056639174
22.3163424653 -14.7486269921 3.3230383769
19.3095176018 -14.2106288844 4.3850687156
20.2586719551 -12.5127463147 8.5185301192
10.8180215005 -0.8514856881 -21.2979732261
8.7299261856 -0.9852034752 -18.8336079769
9.7876613325 -3.8933224749 -18.7885444517
11.6325495855 -3.7410573966 -21.2777107783
15.7869696705 -15.0128472998 -3.1039450520
13.3539755929 -13.7542052707 -3.1933322855
13.2971962472 -13.2224274658 0.7737639708
15.9214453742 -14.3922804445 0.7689281277
12.4017512324 -12.7640536974 -9.9569622094
10.6260181503 -10.9269318876 -10.2855296033
9.7935760829 -10.7856967063 -7.3429157660
11.6402796326 -12.5463124851 -6.9495273242
11.1205834855 -8.9979093386 -15.9484446157
9.6136639640 -6.6459005149 -16.1480460896
8.4174137407 -6.6986607916 -13.5986277986
9.9693417750 -8.9628142734 -13.3252676055
8.9571955089 12.4438794978 -20.4621455523
5.4097185443 12.3832543077 -18.3905445931
6.2698217541 8.8840728089 -18.5782478056
9.3895377474 8.8535574826 -20.9081569745
-0.1169149269 19.5991705280 -16.2028402300
-2.9938097893 18.6737648217 -14.4842908206
-1.2802355919 15.2153374656 -14.3242648664
1.2305836655 15.7661734492 -16.2977759710
14.0718457519 2.1603287214 25.6340319196
13.4648601016 -1.9076519859 22.2752438795
10.2005972025 -1.6952738561 21.5916732356
10.5120104931 1.9264515487 25.0311282693
18.0996028214 -9.5453215790 13.6770637378
14.9019800401 -8.8018440933 14.1391034694
15.8827221749 -5.8996795174 18.3684673620
19.3284960002 -6.4047047908 17.6510929717
-2.7468664442 10.2653656155 -10.2128521522
-1.0664048623 7.0106821999 -10.0478340194
0.1943072057 7.6631541534 -12.0363655174
-1.4006794959 11.1013130549 -12.1230098576
6.8267148500 -3.9188544627 16.1094032548
6.4913610615 -5.7804185417 11.6842833398
4.1330406945 -4.3988338416 9.9756374674
4.2237628404 -2.9099153730 14.1930322211
2.2602937222 -3.5986863959 4.2848757970
2.7070530857 -4.0892519095 0.6210735863
1.0881726122 -1.8835612235 -0.4691697649
0.4956650399 -1.5660890290 2.8626591980
0.2353564946 0.4797174819 -4.3935729483
1.0962540707 0.5772853704 -7.0906330208
-0.4852277071 3.4097744164 -7.5686251966
-1.3939180382 3.1382897135 -5.0955303422
4.8455548371 5.2447745209 -16.3482496472
3.0835663162 4.7914218087 -14.1024676798
4.3422621008 1.4809162527 -14.0934258577
5.9012982577 1.8883782010 -16.4126208052
5.7040957277 -6.6300932702 -5.2953989174
4.9576132062 -6.4797061039 -1.9443313929
6.7017592130 -8.4583712685 -1.0845955407
7.3356910158 -8.7046866339 -4.6444608026
5.9151146614 -4.3575899829 -11.3501906797
4.4809850828 -1.7931047647 -11.6310080834
3.5165383281 -1.9496377201 -9.1921541857
5.0098556160 -4.4061010216 -8.7668440598
8.5037312238 -9.6054927773 3.9241837485
8.6687093388 -8.5433106179 8.4323268893
11.2864648105 -9.8034849768 9.3033495840
10.9198000523 -11.0592925335 4.7289331198
41.0513352683 15.9261097465 -9.3723503074
40.7573831176 13.8133924734 -13.1055490619
38.6459710722 16.7242525174 -14.1038326628
38.9685298546 19.1987606873 -10.3037796744
43.0413970492 5.9940075494 -14.7413551577
42.8507300509 3.8878642188 -17.4105124540
41.5828618727 6.1606392227 -18.5638414953
41.9284981842 8.6493020355 -15.5746051308
-12.7119065944 31.6613246620 -2.3257716146
-10.1503044956 30.2283399416 -6.3841866105
-10.4052242326 27.1647840244 -8.6317724073
-12.7391724655 28.8651517422 -4.8424273576
-20.2854098103 24.7580693072 15.0896004232
-20.4563954228 23.8410713107 12.3859545170
-20.6829210520 23.2419902749 15.0299791137
-19.9734019864 24.1743013115 17.5657470233
-0.5683899795 44.0279433721 1.6387579419
4.6421066608 43.8235179479 1.2513702506
6.3383911373 41.8497401022 -2.7644856726
1.0826507107 41.8348577873 -2.2321882948
19.1969470866 33.8016594990 -10.5647430743
13.9558683747 35.0846362544 -11.0374488750
13.0224675252 38.4543089916 -6.8619535249
18.2692370861 36.8996692278 -6.2546492872
28.6212423132 23.3233307480 -16.8603455821
24.2621537333 24.7687024891 -17.4392455313
24.4366472832 28.6234542203 -13.8987768310
28.8280077767 26.7953728612 -13.1325141003
34.6038373841 12.6358567018 -21.6151504055
31.1750509727 14.2356068266 -22.3248952338
31.9352607403 17.9769037801 -19.4161069663
35.3101748341 16.0988421258 -18.5565051652
38.9161982154 2.0518700243 -25.2283075372
36.3004504929 3.8736026879 -26.2496876230
36.8927116208 7.3279436673 -23.5889956605
39.3575044587 5.3545570861 -22.5512418907
9.1120537086 39.9249223018 20.1912054516
13.8549703828 37.1724412515 22.4935033728
17.6897812357 37.8538802963 18.4969500248
12.8337577714 40.6681079633 16.2895364550
30.9328316919 28.9375739928 11.4378503051
27.5377842189 33.4350403944 10.6287408537
25.0380797525 34.1176203352 15.5421086018
28.3863300834 29.4588445925 16.4188985038
39.5109135667 19.3021463222 3.3430792070
37.2685336022 23.3562343100 2.6396505706
35.7455910184 23.8668958201 7.2470982841
37.9540304803 19.4763455801 7.8281075943
43.1344386637 9.3983373332 -4.5559844950
42.4065892521 13.6206255972 -4.7607967296
41.9263546341 14.4832942744 -0.5906747778
42.5583450438 9.9305346803 -0.5252621834
44.0484427085 1.0158444585 -11.6786372702
43.8069664710 4.2740837112 -11.4267692422
43.7226580071 4.7833043397 -8.2400217985
43.7690695800 1.0278524683 -8.5565719925
26.0995443975 2.3392051071 21.6649948553
24.6704292945 -2.4708408650 19.1924097578
28.7379467675 -2.1793729444 16.5105216868
30.2551179707 2.7480518647 18.6095781830
17.7190650662 11.7376329303 29.5692699560
18.2154943880 6.9613197674 27.7541461203
22.4922004470 7.2199057487 26.1508646089
22.1664632730 12.4075864325 27.7683091551
33.2871360648 -12.0640790222 0.4706563164
31.2937495149 -14.8812562620 -2.1418532240
34.1599714583 -14.5475988524 -4.5522105575
36.1543995865 -11.4962509586 -2.2491809527
30.6766093973 -6.0736675987 11.1045442007
28.6880778526 -9.8634550717 8.3840462208
32.1358569925 -9.3061814970 5.7169977891
34.1309925524 -5.3765797298 8.0304283127
-17.3787837485 24.2522121482 22.4545756956
-15.4748703442 23.1718994038 25.3963339783
-12.7154147056 23.8382742440 26.5614853924
-15.1147649383 25.0962810453 23.8482324251
-7.1919382883 23.4004996991 29.4450374408
-3.7891329101 21.5721113986 31.0649595312
-1.6704077627 23.3854550279 31.1305452780
-5.2268694083 25.0202750822 29.5385350378
7.9532873534 25.7091257333 32.0254238643
3.2672631627 27.1915960434 31.8949877517
3.4382054637 24.0740727191 32.0358311270
7.8350837073 22.2939374116 32.3395033232
-19.6957506593 22.1406165399 25.2239866448
-18.8159451850 21.6115841068 28.0612142099
-15.7569342329 21.0208130888 29.2244617585
-16.7450971050 21.9907055217 26.7864116860
-12.9533776600 18.4496094732 30.9384437009
-13.9002299599 17.0026376905 31.2425903357
-12.4786349257 14.9978372091 29.9371233457
-10.7698318773 16.4822674939 30.3537688482
-6.4218953435 15.9593681507 30.3655565448
-4.1862483764 13.7136057424 29.7245584893
-0.8864982699 15.4773460780 31.1054972872
-3.4751859450 17.7387215144 31.2826882815
11.8006949127 14.3758181550 31.3963156401
9.2261648719 17.3163396433 32.1422302515
5.3210483876 15.1268396939 31.6687263763
7.4941590352 12.5181294346 30.8959626940
-15.9066543549 26.1743689451 -2.7580785148
-17.5183894702 27.0000979603 0.6846745089
-16.8783097458 28.7827212395 1.1980897319
-15.1757555521 27.9961325617 -2.3917143138
-19.3776718300 24.0042550842 4.6614151647
-20.0106085923 24.3099015554 7.7720611081
-19.8366197126 25.7218678585 6.9539537280
-19.1505231557 25.6803737147 4.0378986390
8.6989820073 25.8157731890 -17.1616305755
3.3626563247 25.0723912020 -16.4206888817
3.1557502107 30.2337029071 -14.0122376055
8.7515451021 30.9244624008 -14.5785957040
18.1629651544 16.6543136258 -22.1373224213
13.3129824131 16.6287268994 -21.1746238844
13.7421906994 21.2094008576 -19.6865514210
18.8647156849 21.1585536147 -20.2214036452
25.5379621554 7.5106513102 -26.9850280160
21.3486411273 8.1214016509 -26.2185039873
22.0674841238 12.0847153384 -24.5903818954
26.3831314277 11.4222151581 -24.9967942233
31.2205590384 -1.4523532716 -30.7251982819
27.6419898985 -0.2956273971 -30.5323093772
28.6326480939 3.0180103921 -29.1234175101
32.2995662871 1.8876249839 -29.0868402828
-7.3969714506 37.2752070950 -2.2790210618
-2.8352929518 38.0827284128 -4.8610171391
-2.2846550359 34.0824678373 -9.0397582408
-6.8086245886 33.4556934048 -6.4222308290
34.6419657516 -16.9700526072 -9.3098353791
32.2442622663 -18.9735652227 -11.5026676359
34.6158303424 -19.1256829079 -13.7878693215
37.0890274559 -16.9315517021 -11.7823734794
32.9814792487 -6.1046182567 -31.4275084620
35.7641300390 -7.7302702207 -30.7462529498
33.7640768596 -10.8196272618 -30.9048730738
31.1123892350 -9.1585611268 -31.4890974299
31.3432658971 -20.6744496533 -19.7823574335
33.0724732652 -20.2854191909 -21.9260268693
35.5037997658 -19.9848061924 -20.2774766784
33.9593851916 -20.3896624575 -17.9993803658
44.2347256825 -1.8136451920 -15.4260568052
44.3944151702 -5.1594007636 -16.8793688210
43.9706084047 -3.8406191253 -19.6934652347
43.7962306614 -0.6511507391 -17.8716281626
39.7051623685 -6.3956525342 -28.1674190822
40.6371863502 -3.2227056156 -26.1828947039
42.5325819622 -5.2788778628 -24.1593821959
41.6292196918 -8.4254418119 -26.0520124618
-23.8181537275 21.0440869946 15.5993812448
-24.6793370167 21.3873352918 19.2284365653
-22.5727184989 22.1065430338 20.2302518061
-22.1609952298 22.0859367993 16.4400697006
-24.3771148968 18.8508848344 13.5338362922
-23.1152977849 17.1962658712 11.6936062004
-24.4642714772 15.9607645682 14.3699054424
-25.8527909103 17.5231029687 15.7328978045
-21.7340091942 11.8201410743 16.2603737243
-21.2738049106 11.1633854353 19.0953352599
-23.0649750587 12.0989165152 19.0027328326
-23.4812060214 13.1718879443 16.3931919088
-14.4369806398 12.1448074953 26.8517848601
-16.9758059399 11.3542024221 25.6796477193
-17.9757292081 10.7553056112 22.7599728779
-15.1910652141 11.0209286544 23.8849839110
5.2321142469 44.7940086368 8.8756684465
10.7333976675 43.0995869783 10.3881036349
13.3917523778 42.6216770045 6.6280142563
7.9005654400 44.1973433918 5.4464476373
25.3240643702 35.9949373323 4.7667585242
26.7153366917 34.2030413289 0.0625204524
22.0747110205 37.1037619419 -0.8732794275
20.6227580705 39.0585646491 3.6755524427
35.4027815102 25.9687309747 -2.7483647522
36.0457258940 24.3262876251 -7.1410079450
32.5579397103 27.1756190122 -8.0731793592
31.8691426217 29.1791946936 -3.6525801654
23.5239392363 23.8491667010 25.7641004631
25.4695267371 18.3541738389 25.6044566508
29.6596389311 18.8371147427 21.5590043626
27.6901331055 24.2740529905 21.5864145624
37.5492719650 9.2638078529 12.1221890136
37.1509399296 14.4239734269 12.4937650349
34.3415138919 13.9192293787 16.8804077162
34.6328196868 8.6073537276 16.2425544334
38.5448390721 -0.1307912336 6.2119026285
40.5854050319 0.4442030147 2.4154685867
41.3195042644 5.1850954126 3.2208094639
39.5127468286 4.7526750175 7.2751796137
41.7945630713 -6.8756596780 -6.8833654858
42.6018872691 -3.0301198390 -5.8371838404
41.2443448460 -3.4266866999 -2.2955951560
40.1002554508 -7.3548525155 -3.5263681946
41.1076776804 -13.6883839714 -12.9721571545
42.5448468908 -13.1151961530 -16.3295873918
43.6222215750 -9.6124480002 -15.0050162071
42.3689545103 -10.1689668324 -11.5598970210
41.0764959372 -13.3853123622 -24.3843626536
41.3440008312 -15.0652717335 -20.9891753379
38.8844301817 -17.5121071983 -21.8459825185
38.6866364718 -15.9781720882 -24.9289816194
31.1756395688 -17.1689321503 -27.2001655915
33.5859031952 -15.1548851448 -28.8692038532
35.2185889076 -16.6668253877 -27.0703221257
32.9727262541 -18.5112335982 -25.6245075966
13.4104761638 33.0138538802 27.4721726573
8.7030818143 32.9936539223 29.7784931061
11.4150340783 28.8011837490 30.5958874828
16.3844050006 28.6206085752 28.5030277636
-7.6016288341 25.2194775260 -12.0200386959
-11.1066114125 24.7705805627 -9.2228247709
-12.0283640112 22.8257936622 -8.5182904893
-11.1645506743 19.0986112956 -8.3105482038
-9.3340980098 17.0184156205 -8.6601418499
-6.3444368501 16.1363424759 -10.5404335221
-4.9295014849 17.4759344796 -12.5654935245
-4.9691707816 22.2986571182 -14.0252438396
-14.0127125683 24.7064249779 -6.0178583151
-16.6428226451 24.5430072714 -2.3449956731
-17.0707505101 22.6615268595 -1.5883494444
-15.6859134312 19.4960141271 -3.1598275011
-14.4007633600 18.1269687541 -4.4022332728
-12.1110099316 17.5444525573 -6.5856628228
-18.3735281995 23.6031422276 1.4159960972
-19.5066703247 21.8940488525 5.6229539342
-19.1325399532 19.0503587498 5.5833460508
-16.4373943080 15.8606655596 1.5986243493
-15.0989261488 15.6062561631 -1.0782104978
-15.1610285435 17.6537698693 -2.9731139940
-21.3723270922 12.4200174327 13.2482742722
-19.4339507050 10.7428819811 16.6213344589
-16.5038668859 9.8235497766 17.1698952523
-12.9173112745 8.2478720101 14.3694621269
-11.9491279538 7.6894806005 11.2746658794
-13.4575357037 8.9924284398 7.6484454262
-16.0739591892 10.8941505528 7.2309872857
-20.1016291069 12.8508826762 10.1981100407
-16.1627048748 10.3135025380 20.6014198069
-12.0018781330 11.1617164113 24.8521714691
-8.9438585088 10.4865357392 24.9129923132
-7.8717056189 8.2583622424 21.3782108990
-8.1797404116 7.4083760640 18.9057191432
-10.0863544995 7.1909422524 15.1819922897
-6.9435753844 12.0609392013 27.7825175258
-2.1636983857 11.5423338486 28.8512689409
-0.1819295048 9.3256869026 27.6236558297
-1.0734280875 6.2066426201 23.4647470827
-3.3504986109 5.8824635692 20.8045907962
-6.4430651470 7.1941276576 20.3456721904
3.2947933278 10.7904777133 29.5951664628
9.1851152985 9.4361993675 29.6289134904
10.2652200352 5.8176738506 27.7168927870
7.1176552832 1.6218058883 23.5966351038
3.9587469306 1.5114980980 21.4002593524
0.2932127085 4.0008908215 21.3341743585
-14.4134856371 10.9628460704 4.3496633784
-14.8635427192 13.3133808009 1.4250580970
-21.1372360153 18.5264618158 9.0078974354
-21.8515942462 15.0546135585 10.6399487059
-2.2260401951 4.1517641079 18.5646421065
-3.8165392830 3.3545425136 13.4241446477
-6.1201030050 4.4934130271 11.2809855052
-9.3095633378 6.4139607714 12.3416675665
4.2441839817 -0.9355040697 18.1078492262
1.8289244769 -1.6400262974 11.9645529669
-0.4170370037 -0.1481669403 9.6651529808
-3.1650232037 2.3159205641 10.5699866649
-5.3609699025 3.8785835831 8.5444251637
-6.6215533509 5.4472543946 4.2239199646
-8.6920583235 7.3491681807 3.0532079096
-12.1111859585 9.0229907521 4.8518801474
0.0182768820 -0.9893547068 6.2734126565
-1.2446689948 0.6364540858 1.5143362431
-3.0078042227 2.9904397184 0.2338797950
-5.6938953390 5.3744229625 1.6165770452
-13.4660558072 13.3852154304 -1.0851710610
-10.3557050637 11.6772713071 -2.9452880816
-9.3161021648 12.3664771896 -4.9123833774
-10.2852115246 15.5592578438 -6.8652756843
-7.4386022375 10.2149906390 -4.5570348635
-4.7703547871 8.5699071518 -6.2234140923
-3.8434133143 9.3988832579 -8.2738838932
-4.5097096838 13.3499904732 -10.3793280167
-7.6066797301 7.4436810931 0.5583535809
-8.4311363187 9.6738258796 -2.4540167673
-2.2201256831 2.9748776587 -2.4595021660
-3.0671048692 5.8952763595 -5.7219551165
29.3882457390 -20.5963447640 -17.5206823830
28.9230477336 -20.0832856858 -21.3399500458
26.5548909492 -18.8618737200 -22.4113324869
21.9893884404 -17.2477237600 -20.2095820104
20.1926599160 -16.9893676019 -17.4329845314
21.1139581876 -17.9624929941 -14.4734287557
23.4185300259 -19.0016099444 -13.8561476215
27.4229895358 -20.1973357929 -15.1487028938
28.9713337757 -11.7819454277 -30.5263766634
28.1962699530 -7.4888122035 -31.5846708715
25.1747427414 -5.9023746344 -31.0699201219
21.2865901735 -6.6110187978 -29.1916502022
19.9055829515 -7.7779960292 -27.9234833494
19.6318692017 -10.5457797756 -26.3118912335
21.7756533672 -12.7379306190 -26.4437205037
26.6135148794 -13.6901007096 -28.7114124384
26.4893161343 -3.2964278747 -31.2406681194
